0.00813257 1.04392 1.02984 
0.00901196 1.04386 1.03038 
0.00981241 1.04372 1.03097 
0.0109288 1.0439 1.03133 
0.0118874 1.04391 1.03181 
0.0138726 1.04498 1.03151 
0.0145942 1.04476 1.03217 
0.0155525 1.04478 1.03265 
0.0169849 1.04528 1.03277 
0.0184963 1.04587 1.03283 
0.0200867 1.04653 1.03283 
0.0232567 1.04881 1.03164 
0.0238994 1.04851 1.03236 
0.0354192 1.05933 1.02489 
0.039472 1.06255 1.02305 
0.0426088 1.06482 1.02189 
0.0430803 1.06434 1.02274 
0.0443848 1.06472 1.02295 
0.0471051 1.06656 1.02211 
0.0484096 1.06694 1.02233 
0.0493809 1.06697 1.0228 
0.0505188 1.06718 1.02314 
0.0514068 1.06713 1.02367 
0.0523782 1.06716 1.02414 
0.0530997 1.06694 1.0248 
0.0539877 1.06689 1.02533 
0.0544594 1.06641 1.02617 
0.0550975 1.0661 1.02689 
0.0557357 1.06579 1.02761 
0.0567071 1.06582 1.02807 
0.0586779 1.06689 1.02779 
0.0595659 1.06684 1.02832 
0.0607871 1.06713 1.02861 
0.0620916 1.06751 1.02882 
0.0632295 1.06772 1.02917 
0.0642008 1.06775 1.02964 
0.066005 1.06865 1.02948 
0.0668096 1.06851 1.03007 
0.0681975 1.06897 1.03023 
0.0693354 1.06918 1.03057 
0.0716392 1.07059 1.03004 
0.0723607 1.07037 1.0307 
0.0736652 1.07075 1.03092 
0.0752195 1.07138 1.03095 
0.0766905 1.07194 1.03104 
0.0793276 1.07369 1.03026 
-0.0472447 1.02248 1.02819 
-0.047188 1.02156 1.02935 
-0.0470573 1.02073 1.03044 
-0.0467051 1.02012 1.03137 
-0.0464267 1.01943 1.03236 
-0.0460007 1.0189 1.03323 
-0.0455747 1.01837 1.03411 
-0.0450009 1.01799 1.03488 
-0.0442055 1.01785 1.03548 
-0.0433364 1.01778 1.03602 
-0.0416547 1.01856 1.03596 
-0.0407855 1.01849 1.03651 
-0.037479 1.02096 1.03523 
-0.0360929 1.02143 1.03539 
-0.030423 1.02636 1.03236 
-0.0282242 1.02768 1.03191 
-0.0274289 1.02753 1.03251 
-0.024131 1.02951 1.03184 
-0.0221539 1.03059 1.03156 
-0.0191599 1.03177 1.03172 
-0.000336763 1.04873 1.02059 
-0.000168156 1.04795 1.02166 
0.000158339 1.04732 1.02261 
0.000405937 1.04661 1.02363 
0.000574599 1.04582 1.0247 
0.00113812 1.04544 1.02547 
0.00178063 1.04514 1.02619 
0.00234413 1.04475 1.02696 
0.00282863 1.04429 1.0278 
0.0035501 1.04406 1.02845 
0.00442958 1.044 1.02899 
0.00538793 1.04402 1.02946 
0.00634641 1.04404 1.02994 
0.00738378 1.04414 1.03036 
0.0081842 1.044 1.03096 
0.00906373 1.04393 1.03149 
0.0101011 1.04403 1.03191 
0.0112175 1.04421 1.03227 
0.0127288 1.0448 1.03233 
0.0141611 1.0453 1.03245 
0.0148826 1.04508 1.03311 
0.0161568 1.04542 1.03334 
0.0174313 1.04576 1.03358 
0.0190215 1.04643 1.03359 
0.0206909 1.04718 1.03353 
0.0232288 1.04881 1.03282 
0.0353171 1.06022 1.02492 
0.0392849 1.06336 1.02315 
0.0422538 1.06546 1.02212 
0.0427255 1.06498 1.02296 
0.0440297 1.06536 1.02318 
0.0467488 1.0672 1.02234 
0.0478866 1.06741 1.02269 
0.0492739 1.06787 1.02284 
0.0500787 1.06774 1.02344 
0.0510499 1.06777 1.0239 
0.0519378 1.06772 1.02444 
0.0527426 1.06758 1.02503 
0.0537138 1.06762 1.0255 
0.0542688 1.06722 1.02628 
0.0548237 1.06683 1.02706 
0.0553788 1.06643 1.02784 
0.0562667 1.06638 1.02837 
0.0582368 1.06745 1.02809 
0.0591247 1.0674 1.02862 
0.0604289 1.06778 1.02884 
0.0618163 1.06824 1.029 
0.0627042 1.06819 1.02953 
0.0640083 1.06857 1.02975 
0.065479 1.06912 1.02984 
0.0663669 1.06907 1.03037 
0.0678376 1.06962 1.03047 
0.068892 1.06974 1.03087 
0.0712783 1.07124 1.03028 
0.0719165 1.07093 1.031 
0.0730542 1.07114 1.03134 
0.0746913 1.07186 1.03131 
0.0762451 1.0725 1.03135 
0.0788812 1.07426 1.03057 
-0.0475118 1.02365 1.02774 
-0.0476023 1.02258 1.029 
-0.0475452 1.02167 1.03016 
-0.0472668 1.02098 1.03114 
-0.0469143 1.02037 1.03207 
-0.0465621 1.01977 1.033 
-0.0462096 1.01916 1.03393 
-0.0457096 1.0187 1.03475 
-0.0452097 1.01825 1.03557 
-0.0444882 1.01803 1.03623 
-0.0436191 1.01796 1.03678 
-0.0427498 1.01789 1.03732 
-0.0410687 1.01867 1.03726 
-0.0399043 1.0189 1.03759 
-0.0311359 1.02708 1.03224 
-0.0307098 1.02655 1.03312 
-0.0300621 1.02625 1.03383 
-0.0276427 1.0278 1.03322 
-0.0260353 1.0285 1.03321 
-0.024067 1.02909 1.03354 
-0.0200235 1.03233 1.03172 
-0.0193021 1.03211 1.03237 
-0.0180637 1.03243 1.03264 
-0.000453817 1.0496 1.02063 
-0.000600952 1.04849 1.02194 
-0.000195495 1.04794 1.02283 
5.21634e-05 1.04723 1.02385 
0.000141876 1.04637 1.02498 
0.00062641 1.0459 1.02581 
0.00126895 1.0456 1.02653 
0.00175349 1.04513 1.02736 
0.00231704 1.04475 1.02813 
0.00288053 1.04436 1.02891 
0.00368102 1.04422 1.0295 
0.00448145 1.04408 1.0301 
0.00559781 1.04426 1.03046 
0.00663517 1.04436 1.03088 
0.00759356 1.04438 1.03135 
0.00831501 1.04415 1.03201 
0.00943136 1.04433 1.03237 
0.0103898 1.04435 1.03284 
0.0117431 1.04478 1.03303 
0.0130173 1.04512 1.03326 
0.0145286 1.0457 1.03333 
0.015487 1.04572 1.0338 
0.0167612 1.04607 1.03404 
0.0181145 1.04649 1.03422 
0.0197837 1.04724 1.03417 
0.0227165 1.04927 1.03316 
0.0237539 1.04937 1.03357 
0.0390975 1.06417 1.02325 
0.0418156 1.06601 1.02241 
0.0423706 1.06562 1.02319 
0.0435913 1.06591 1.02347 
0.0466422 1.0681 1.02239 
0.0478628 1.0684 1.02267 
0.0489171 1.06852 1.02307 
0.0498049 1.06847 1.0236 
0.0506096 1.06833 1.0242 
0.0516638 1.06845 1.0246 
0.0525517 1.0684 1.02514 
0.0533564 1.06826 1.02573 
0.0539946 1.06795 1.02645 
0.0544665 1.06747 1.02729 
0.055188 1.06725 1.02794 
0.0559095 1.06703 1.0286 
0.0579621 1.06818 1.02826 
0.0588499 1.06813 1.02879 
0.0600706 1.06842 1.02907 
0.0613744 1.0688 1.02929 
0.0622622 1.06875 1.02982 
0.0638157 1.06939 1.02986 
0.0647036 1.06934 1.03039 
0.0659242 1.06963 1.03067 
0.0674776 1.07027 1.0307 
0.0684487 1.07031 1.03117 
0.0710835 1.07207 1.0304 
0.0714722 1.0715 1.0313 
0.0724433 1.07153 1.03177 
0.0740799 1.07226 1.03174 
0.0758829 1.07315 1.03159 
0.0776859 1.07405 1.03143 
0.0802377 1.07572 1.03072 
-0.0478612 1.02426 1.02795 
-0.0479516 1.02318 1.02921 
-0.0478203 1.02234 1.03031 
-0.0475416 1.02166 1.03129 
-0.047189 1.02105 1.03222 
-0.0469104 1.02036 1.03321 
-0.0465577 1.01976 1.03414 
-0.0461316 1.01922 1.03501 
-0.0456314 1.01877 1.03583 
-0.0450576 1.01839 1.0366 
-0.0442623 1.01825 1.0372 
-0.0433194 1.01825 1.03769 
-0.0416386 1.01903 1.03763 
-0.0406957 1.01904 1.03812 
-0.0382771 1.02059 1.03751 
-0.0326853 1.02546 1.03454 
-0.0308569 1.02639 1.03437 
-0.0301357 1.02617 1.03503 
-0.0289714 1.02641 1.03535 
-0.0269215 1.02757 1.03502 
-0.0259049 1.02766 1.03545 
-0.0240766 1.02859 1.03529 
-0.0212151 1.0306 1.03435 
-0.018206 1.03277 1.0333 
-0.0182225 1.03178 1.0345 
-0.0014072 1.04673 1.0249 
-0.00115954 1.04602 1.02591 
-0.000595957 1.04563 1.02668 
0.000125515 1.04541 1.02734 
0.00100493 1.04535 1.02788 
0.00164744 1.04504 1.02859 
0.00244781 1.0449 1.02919 
0.00309045 1.0446 1.0299 
0.00381195 1.04438 1.03056 
0.00477023 1.04439 1.03103 
0.00580755 1.04449 1.03145 
0.00668697 1.04443 1.03199 
0.0077243 1.04453 1.03241 
0.00860381 1.04447 1.03294 
0.00972008 1.04465 1.0333 
0.0110733 1.04508 1.03348 
0.0120316 1.0451 1.03396 
0.0129901 1.04512 1.03444 
0.014975 1.04619 1.03414 
0.0159334 1.0462 1.03462 
0.0171286 1.04647 1.03492 
0.0186398 1.04705 1.03498 
0.0209406 1.04845 1.03445 
0.0235573 1.05016 1.03368 
0.0389929 1.06507 1.02329 
0.0414605 1.06666 1.02264 
0.0421819 1.06643 1.02329 
0.0436518 1.06699 1.02339 
0.046535 1.069 1.02243 
0.0476722 1.06921 1.02277 
0.04856 1.06916 1.0233 
0.0494478 1.06911 1.02384 
0.0503356 1.06906 1.02437 
0.0513896 1.06918 1.02477 
0.0521943 1.06905 1.02537 
0.0531652 1.06908 1.02584 
0.0538036 1.06877 1.02655 
0.0542756 1.06829 1.0274 
0.0549138 1.06798 1.02811 
0.0556354 1.06776 1.02877 
0.0577703 1.069 1.02837 
0.0585751 1.06886 1.02896 
0.0595459 1.0689 1.02943 
0.0608494 1.06928 1.02965 
0.0620697 1.06957 1.02993 
0.0632901 1.06987 1.03022 
0.064261 1.0699 1.03068 
0.0657308 1.07046 1.03078 
0.0670343 1.07084 1.031 
0.0681716 1.07104 1.03135 
0.0693088 1.07125 1.03169 
0.0711112 1.07215 1.03154 
0.0719989 1.0721 1.03207 
0.0738013 1.073 1.03192 
0.0753543 1.07363 1.03195 
0.077323 1.0747 1.03167 
0.0795411 1.07603 1.03121 
-0.0482926 1.02428 1.02882 
-0.048235 1.02337 1.02997 
-0.047956 1.02268 1.03095 
-0.0475296 1.02215 1.03183 
-0.0472508 1.02146 1.03281 
-0.0469718 1.02078 1.0338 
-0.0466191 1.02017 1.03473 
-0.0462664 1.01956 1.03566 
-0.0457662 1.0191 1.03648 
-0.0451923 1.01873 1.03724 
-0.0443971 1.01858 1.03784 
-0.0434542 1.01859 1.03833 
-0.0419215 1.01921 1.03839 
-0.0407575 1.01945 1.03871 
-0.0384132 1.02093 1.03816 
-0.036069 1.0224 1.03761 
-0.0310696 1.02665 1.03508 
-0.0303482 1.02643 1.03573 
-0.0292578 1.02659 1.03611 
-0.0271349 1.02784 1.03572 
-0.0258234 1.02823 1.03594 
-0.0243643 1.02878 1.03605 
-0.0231266 1.0291 1.03632 
-0.0207825 1.03057 1.03577 
-0.0191758 1.03127 1.03576 
-0.0180855 1.03144 1.03614 
-0.0161838 1.03245 1.03592 
-0.0148725 1.03284 1.03614 
-0.00126555 1.04593 1.02714 
-0.000701816 1.04555 1.02792 
1.9596e-05 1.04532 1.02857 
0.000583154 1.04494 1.02935 
0.00130456 1.04472 1.03 
0.00242091 1.0449 1.03036 
0.0033003 1.04484 1.0309 
0.00417962 1.04477 1.03143 
0.00498006 1.04463 1.03203 
0.00585953 1.04457 1.03257 
0.00721265 1.04499 1.03275 
0.00801309 1.04485 1.03334 
0.00897144 1.04487 1.03382 
0.0104825 1.04546 1.03388 
0.011204 1.04523 1.03454 
0.0123203 1.04542 1.0349 
0.0135154 1.04568 1.03519 
0.0155793 1.04683 1.03484 
0.0163797 1.04669 1.03544 
0.0177328 1.04711 1.03562 
0.0198757 1.04834 1.0352 
0.0214656 1.04901 1.03521 
0.0240031 1.05065 1.0345 
0.0411885 1.06739 1.0228 
0.041993 1.06725 1.0234 
0.0453737 1.06979 1.02207 
0.0463444 1.06982 1.02254 
0.0473984 1.06994 1.02294 
0.0482029 1.06981 1.02354 
0.0491737 1.06984 1.024 
0.0499783 1.06971 1.0246 
0.0511983 1.07 1.02488 
0.0518367 1.06969 1.0256 
0.0528907 1.06981 1.02601 
0.0535291 1.0695 1.02672 
0.0540843 1.06911 1.0275 
0.0546396 1.06871 1.02828 
0.0553611 1.06849 1.02894 
0.0575783 1.06982 1.02848 
0.0582998 1.0696 1.02913 
0.0592706 1.06963 1.0296 
0.0605738 1.07001 1.02982 
0.0617108 1.07022 1.03017 
0.063014 1.0706 1.03039 
0.0639016 1.07055 1.03092 
0.0654542 1.07119 1.03095 
0.0666742 1.07149 1.03124 
0.0678943 1.07178 1.03152 
0.0689482 1.0719 1.03193 
0.07075 1.0728 1.03177 
0.0717208 1.07284 1.03224 
0.0736057 1.07382 1.03203 
0.0750751 1.07437 1.03213 
0.077043 1.07544 1.03185 
0.0802028 1.07727 1.03128 
-0.048578 1.02447 1.02958 
-0.0482989 1.02378 1.03056 
-0.0479462 1.02317 1.03149 
-0.0475934 1.02256 1.03242 
-0.0471667 1.02203 1.03329 
-0.0468876 1.02134 1.03428 
-0.0466085 1.02066 1.03526 
-0.0464032 1.01989 1.0363 
-0.0459766 1.01936 1.03718 
-0.0454025 1.01898 1.03794 
-0.0445336 1.01892 1.03849 
-0.0437384 1.01877 1.03909 
-0.0424272 1.01916 1.03931 
-0.0405997 1.0201 1.03914 
-0.0382562 1.02157 1.03859 
-0.036355 1.02259 1.03837 
-0.0311361 1.02707 1.03567 
-0.0305621 1.0267 1.03644 
-0.0298405 1.02647 1.03709 
-0.0287505 1.02664 1.03748 
-0.026112 1.02842 1.0367 
-0.0250956 1.02851 1.03714 
-0.0231207 1.0296 1.03686 
-0.0220307 1.02976 1.03724 
-0.0193186 1.03162 1.03642 
-0.0182284 1.03178 1.0368 
-0.0163272 1.03279 1.03658 
-0.0152371 1.03296 1.03696 
-0.0131885 1.03412 1.03663 
-0.000855755 1.0459 1.02859 
-0.000371066 1.04543 1.02942 
0.000271509 1.04513 1.03013 
0.000914079 1.04483 1.03085 
0.00179344 1.04476 1.03139 
0.00314629 1.04519 1.03157 
0.00402559 1.04513 1.0321 
0.00466816 1.04482 1.03282 
0.00554749 1.04476 1.03336 
0.00658461 1.04486 1.03377 
0.0079376 1.04529 1.03395 
0.00889578 1.04531 1.03443 
0.0100909 1.04557 1.03473 
0.0110491 1.04559 1.03521 
0.0122442 1.04585 1.03551 
0.0134392 1.04611 1.03581 
0.0155814 1.04735 1.0354 
0.0163818 1.0472 1.03599 
0.0182872 1.0482 1.03576 
0.0194822 1.04846 1.03606 
0.0213087 1.04937 1.03588 
0.0240821 1.05125 1.035 
0.0412704 1.06801 1.02331 
0.0420748 1.06787 1.0239 
0.0457043 1.07067 1.02238 
0.0465088 1.07053 1.02298 
0.0473964 1.07048 1.02351 
0.0484502 1.0706 1.02392 
0.0494209 1.07064 1.02439 
0.0502256 1.0705 1.02498 
0.0512793 1.07063 1.02539 
0.052167 1.07058 1.02592 
0.0529715 1.07044 1.02651 
0.0534437 1.06996 1.02735 
0.0540822 1.06965 1.02807 
0.0547205 1.06934 1.02879 
0.0556082 1.06929 1.02932 
0.057659 1.07045 1.02898 
0.0583804 1.07022 1.02964 
0.0594342 1.07034 1.03005 
0.0608204 1.07081 1.0302 
0.0619573 1.07102 1.03055 
0.0632603 1.0714 1.03077 
0.0643972 1.07161 1.03112 
0.0656172 1.07191 1.0314 
0.0669202 1.07229 1.03162 
0.0681401 1.07258 1.0319 
0.0701079 1.07365 1.03163 
0.0709124 1.07352 1.03222 
0.0720493 1.07372 1.03257 
0.0736847 1.07445 1.03254 
0.0753201 1.07518 1.03251 
0.0777033 1.07668 1.03193 
-0.0487742 1.02572 1.02907 
-0.0487896 1.02473 1.03028 
-0.0482893 1.02427 1.0311 
-0.0478626 1.02374 1.03197 
-0.0475095 1.02313 1.0329 
-0.0471566 1.02252 1.03383 
-0.0468774 1.02183 1.03482 
-0.0466717 1.02107 1.03586 
-0.0464661 1.02031 1.0369 
-0.0461132 1.0197 1.03782 
-0.0456127 1.01924 1.03864 
-0.0447439 1.01917 1.03919 
-0.0438013 1.01918 1.03968 
-0.0426377 1.01942 1.04001 
-0.0404421 1.02075 1.03957 
-0.038173 1.02214 1.03907 
-0.0367146 1.02269 1.03918 
-0.0328977 1.02572 1.03753 
-0.0307022 1.02704 1.03709 
-0.0301281 1.02666 1.03786 
-0.0289644 1.0269 1.03818 
-0.0261793 1.02884 1.0373 
-0.0253842 1.0287 1.0379 
-0.0242205 1.02894 1.03823 
-0.0224671 1.02979 1.03812 
-0.0196822 1.03173 1.03724 
-0.019624 1.03082 1.03839 
-0.0174286 1.03214 1.03795 
-0.0153068 1.03338 1.03756 
-0.0134798 1.03432 1.03739 
-0.00093059 1.04633 1.0292 
-0.000524827 1.04579 1.03009 
3.89712e-05 1.0454 1.03086 
0.000681575 1.0451 1.03158 
0.001482 1.04496 1.03218 
0.00251894 1.04506 1.03259 
0.00379278 1.0454 1.03283 
0.00451422 1.04518 1.03349 
0.00539345 1.04512 1.03403 
0.0062727 1.04506 1.03456 
0.0080988 1.04597 1.03439 
0.0088203 1.04574 1.03505 
0.00977839 1.04576 1.03552 
0.0108943 1.04594 1.03588 
0.0119313 1.04604 1.0363 
0.0133629 1.04655 1.03642 
0.0155045 1.04778 1.03601 
0.0166994 1.04805 1.03631 
0.017973 1.04839 1.03655 
0.0195624 1.04906 1.03655 
0.0218619 1.05045 1.03602 
0.0242401 1.05193 1.03544 
0.0438441 1.07122 1.02195 
0.045147 1.0716 1.02217 
0.0457023 1.07121 1.02295 
0.046673 1.07125 1.02342 
0.0478928 1.07154 1.0237 
0.0486143 1.07132 1.02436 
0.0495019 1.07127 1.02489 
0.0505557 1.07139 1.0253 
0.0512771 1.07117 1.02595 
0.0522477 1.0712 1.02642 
0.0529693 1.07098 1.02708 
0.0535246 1.07058 1.02786 
0.0540799 1.07019 1.02864 
0.0548014 1.06996 1.02929 
0.0573503 1.07164 1.02858 
0.0578225 1.07116 1.02943 
0.058544 1.07094 1.03008 
0.05993 1.0714 1.03024 
0.0610668 1.07161 1.03059 
0.0622866 1.07191 1.03087 
0.0635896 1.07229 1.03109 
0.0648094 1.07258 1.03137 
0.0658631 1.07271 1.03178 
0.0672491 1.07317 1.03194 
0.0697149 1.07477 1.03129 
0.069938 1.07402 1.03232 
0.0710747 1.07423 1.03267 
0.0725438 1.07479 1.03277 
0.074262 1.0756 1.03268 
0.0760633 1.0765 1.03253 
0.0810494 1.08023 1.03059 
-0.0491255 1.02633 1.02929 
-0.0490671 1.02541 1.03043 
-0.0485666 1.02495 1.03125 
-0.0480661 1.0245 1.03207 
-0.0477131 1.02389 1.033 
-0.0472863 1.02336 1.03388 
-0.0470068 1.02267 1.03486 
-0.046801 1.02191 1.0359 
-0.0465216 1.02122 1.03689 
-0.0463895 1.02038 1.03798 
-0.0460363 1.01977 1.03891 
-0.0453149 1.01954 1.03956 
-0.0444459 1.01948 1.04011 
-0.0433562 1.01964 1.04049 
-0.0413086 1.02081 1.04016 
-0.0400715 1.02113 1.04043 
-0.0376555 1.02268 1.03983 
-0.0337663 1.02578 1.03813 
-0.0320134 1.02664 1.03802 
-0.0304816 1.02727 1.03807 
-0.0297601 1.02705 1.03873 
-0.0288176 1.02705 1.03922 
-0.0269911 1.02799 1.03905 
-0.0253119 1.02877 1.039 
-0.0230432 1.03017 1.0385 
-0.0220272 1.03026 1.03894 
-0.0202743 1.03112 1.03883 
-0.0191108 1.03136 1.03915 
-0.0175789 1.03199 1.03921 
-0.0137634 1.03501 1.03756 
-0.0135576 1.03425 1.0386 
-0.000881275 1.04641 1.03031 
-0.000317594 1.04603 1.03109 
0.000246202 1.04564 1.03186 
0.000967673 1.04542 1.03252 
0.00184684 1.04536 1.03306 
0.00256835 1.04514 1.03371 
0.00399955 1.04564 1.03383 
0.00487876 1.04558 1.03437 
0.00567911 1.04544 1.03497 
0.00687378 1.0457 1.03527 
0.00830503 1.04621 1.03539 
0.00918419 1.04615 1.03593 
0.0102212 1.04625 1.03635 
0.0112581 1.04635 1.03676 
0.0125316 1.04669 1.037 
0.0139628 1.0472 1.03713 
0.0164193 1.04876 1.03648 
0.0171407 1.04854 1.03714 
0.0186509 1.04912 1.0372 
0.0205553 1.05011 1.03697 
0.0224597 1.05111 1.03673 
0.0438137 1.07222 1.02194 
0.0450334 1.07251 1.02223 
0.0455887 1.07212 1.023 
0.0465594 1.07215 1.02347 
0.047613 1.07228 1.02388 
0.0483344 1.07205 1.02454 
0.0493051 1.07209 1.02501 
0.0502757 1.07213 1.02548 
0.0509972 1.0719 1.02613 
0.0520509 1.07203 1.02654 
0.0526893 1.07172 1.02726 
0.0532447 1.07132 1.02804 
0.0538 1.07092 1.02882 
0.0545216 1.0707 1.02947 
0.0573191 1.07264 1.02858 
0.0575423 1.0719 1.02961 
0.0585129 1.07193 1.03007 
0.0598158 1.07232 1.0303 
0.0607862 1.07235 1.03077 
0.0620891 1.07273 1.03099 
0.0633087 1.07303 1.03127 
0.0644455 1.07324 1.03162 
0.0657482 1.07362 1.03184 
0.0669679 1.07392 1.03212 
0.0693502 1.07542 1.03154 
0.0697396 1.07485 1.03244 
0.0709592 1.07515 1.03272 
0.0723451 1.07562 1.03288 
0.07398 1.07634 1.03286 
0.0755319 1.07698 1.03289 
0.080185 1.08037 1.03121 
-0.0494035 1.02701 1.02944 
-0.0493447 1.02609 1.03059 
-0.0488442 1.02564 1.03141 
-0.0483436 1.02518 1.03223 
-0.0479167 1.02465 1.0331 
-0.0474899 1.02412 1.03398 
-0.0471365 1.02351 1.03491 
-0.0468569 1.02282 1.03589 
-0.0466509 1.02205 1.03693 
-0.0465923 1.02113 1.03808 
-0.0463862 1.02037 1.03912 
-0.0458121 1.01999 1.03988 
-0.0449432 1.01992 1.04043 
-0.0439272 1.02001 1.04086 
-0.0423957 1.02064 1.04092 
-0.040496 1.02165 1.0407 
-0.0381545 1.02313 1.04015 
-0.0372856 1.02306 1.0407 
-0.033324 1.02624 1.03894 
-0.0309824 1.02772 1.0384 
-0.0304082 1.02734 1.03916 
-0.0295394 1.02728 1.03971 
-0.0276396 1.02829 1.03949 
-0.0264764 1.02853 1.03981 
-0.024503 1.02962 1.03954 
-0.023487 1.02971 1.03998 
-0.0207036 1.03165 1.0391 
-0.0197611 1.03166 1.03959 
-0.0183032 1.03221 1.0397 
-0.0170663 1.03253 1.03997 
-0.0156085 1.03308 1.04008 
-0.013635 1.03417 1.0398 
-0.0120298 1.03488 1.0398 
-0.000268096 1.04611 1.03221 
0.000611106 1.04605 1.03274 
0.00133252 1.04582 1.0334 
0.00205405 1.0456 1.03405 
0.00269672 1.0453 1.03477 
0.00428529 1.04597 1.03477 
0.00524328 1.04599 1.03525 
0.00612242 1.04592 1.03579 
0.00739576 1.04627 1.03603 
0.00866897 1.04661 1.03627 
0.00946931 1.04647 1.03687 
0.0106638 1.04673 1.03717 
0.0118583 1.047 1.03747 
0.0130527 1.04726 1.03777 
0.0147991 1.04809 1.03765 
0.0167029 1.04908 1.03742 
0.0177398 1.04919 1.03784 
0.0198014 1.05034 1.03749 
0.0219418 1.05158 1.03708 
0.043949 1.07339 1.02181 
0.0447535 1.07325 1.0224 
0.045392 1.07294 1.02312 
0.0462795 1.07289 1.02365 
0.047084 1.07276 1.02425 
0.0479716 1.07271 1.02478 
0.0491082 1.07292 1.02512 
0.0499957 1.07287 1.02565 
0.0508002 1.07273 1.02625 
0.0518537 1.07285 1.02666 
0.0524092 1.07245 1.02744 
0.0528816 1.07197 1.02828 
0.0534371 1.07158 1.02906 
0.0542415 1.07144 1.02965 
0.0552951 1.07156 1.03006 
0.0575109 1.0729 1.0296 
0.0583985 1.07285 1.03013 
0.059535 1.07306 1.03048 
0.0606716 1.07326 1.03082 
0.0618082 1.07347 1.03117 
0.0631939 1.07394 1.03133 
0.0643304 1.07415 1.03167 
0.0657991 1.07471 1.03177 
0.0669357 1.07492 1.03212 
0.0691517 1.07625 1.03166 
0.0696239 1.07577 1.0325 
0.0709266 1.07615 1.03272 
0.0720632 1.07636 1.03307 
0.0733659 1.07674 1.03329 
0.0753327 1.07781 1.03301 
0.079126 1.08079 1.03138 
-0.0496079 1.02777 1.02955 
-0.0496224 1.02677 1.03075 
-0.049122 1.02632 1.03157 
-0.0486212 1.02586 1.03239 
-0.0481942 1.02533 1.03326 
-0.0477671 1.0248 1.03413 
-0.0473401 1.02426 1.03501 
-0.0470602 1.02358 1.03599 
-0.046854 1.02281 1.03703 
-0.0467215 1.02197 1.03812 
-0.0465888 1.02113 1.03922 
-0.046309 1.02044 1.0402 
-0.0453669 1.02045 1.04069 
-0.0444982 1.02038 1.04124 
-0.0430405 1.02093 1.04135 
-0.0418774 1.02117 1.04167 
-0.0398308 1.02234 1.04135 
-0.038226 1.02305 1.04134 
-0.0341921 1.02631 1.03954 
-0.0322928 1.02732 1.03932 
-0.0308353 1.02788 1.03943 
-0.0301874 1.02758 1.04014 
-0.0290978 1.02774 1.04052 
-0.0270513 1.02891 1.04019 
-0.0253729 1.02969 1.04014 
-0.0243569 1.02978 1.04058 
-0.0230466 1.03018 1.04079 
-0.0210001 1.03135 1.04046 
-0.0199106 1.03151 1.04085 
-0.0177905 1.03276 1.04046 
-0.0164801 1.03315 1.04068 
-0.0152434 1.03347 1.04095 
-0.0126816 1.03519 1.04024 
-0.0120337 1.03488 1.04095 
-6.06813e-05 1.04635 1.0332 
0.000818282 1.04629 1.03374 
0.00153978 1.04606 1.0344 
0.00218245 1.04576 1.03511 
0.00298275 1.04562 1.03571 
0.00441347 1.04613 1.03583 
0.00568649 1.04647 1.03607 
0.00648678 1.04633 1.03667 
0.00744459 1.04635 1.03715 
0.00911162 1.0471 1.03709 
0.00983321 1.04688 1.03775 
0.0111851 1.0473 1.03793 
0.0124582 1.04765 1.03817 
0.014204 1.04848 1.03806 
0.0154771 1.04882 1.0383 
0.0171443 1.04957 1.03825 
0.0187325 1.05024 1.03825 
0.0209512 1.05156 1.03779 
0.0249822 1.05474 1.03596 
0.0443907 1.0739 1.02264 
0.0451121 1.07368 1.0233 
0.0459996 1.07363 1.02383 
0.0468042 1.07349 1.02442 
0.0476916 1.07344 1.02496 
0.0489111 1.07374 1.02524 
0.0497156 1.0736 1.02583 
0.0505201 1.07347 1.02643 
0.0515736 1.07359 1.02683 
0.052129 1.07319 1.02761 
0.0526015 1.07271 1.02846 
0.053157 1.07231 1.02923 
0.0540444 1.07226 1.02977 
0.0550979 1.07239 1.03017 
0.0573964 1.07381 1.02965 
0.0588649 1.07436 1.02975 
0.0605825 1.07518 1.02966 
0.0613039 1.07496 1.03032 
0.0626895 1.07543 1.03048 
0.0636599 1.07546 1.03095 
0.0648794 1.07576 1.03123 
0.0662649 1.07623 1.03139 
0.0671524 1.07618 1.03193 
0.0687869 1.07691 1.0319 
0.0696743 1.07685 1.03243 
0.0710598 1.07732 1.03259 
0.0724453 1.07779 1.03275 
0.0783448 1.08102 1.03193 
-0.0495918 1.02876 1.02948 
-0.0499003 1.02746 1.0309 
-0.0494732 1.02692 1.03178 
-0.0488988 1.02654 1.03254 
-0.0484717 1.02601 1.03342 
-0.048118 1.0254 1.03435 
-0.0476174 1.02495 1.03516 
-0.0473374 1.02426 1.03615 
-0.0469839 1.02365 1.03708 
-0.046851 1.0228 1.03817 
-0.0467918 1.02188 1.03932 
-0.0465853 1.02112 1.04035 
-0.0457904 1.02097 1.04095 
-0.0449216 1.0209 1.0415 
-0.0435379 1.02138 1.04167 
-0.0426692 1.02131 1.04221 
-0.0401083 1.02302 1.0415 
-0.0385039 1.02373 1.0415 
-0.0372673 1.02405 1.04177 
-0.0338969 1.02662 1.04046 
-0.0317774 1.02786 1.04008 
-0.0306144 1.02811 1.04041 
-0.0297457 1.02804 1.04096 
-0.0286563 1.0282 1.04134 
-0.0269783 1.02899 1.04128 
-0.0247116 1.03039 1.04079 
-0.0239166 1.03024 1.04139 
-0.0215027 1.0318 1.04079 
-0.0207076 1.03166 1.04139 
-0.0196182 1.03182 1.04178 
-0.0176459 1.03292 1.0415 
-0.0160414 1.03362 1.0415 
-0.0142898 1.03448 1.04139 
-0.0125382 1.03534 1.04128 
-0.0116696 1.03528 1.04183 
-0.000247227 1.04618 1.0345 
0.000631732 1.04612 1.03503 
0.00174708 1.04631 1.03539 
0.00238977 1.046 1.03611 
0.00342637 1.0461 1.03653 
0.00525057 1.04702 1.03636 
0.00589331 1.04671 1.03707 
0.00692989 1.04681 1.03749 
0.00836023 1.04732 1.03761 
0.0093968 1.04742 1.03803 
0.0104333 1.04752 1.03845 
0.0115487 1.04771 1.03881 
0.0132942 1.04854 1.0387 
0.0147245 1.04905 1.03882 
0.0169426 1.05037 1.03836 
0.0178215 1.05031 1.0389 
0.0198821 1.05146 1.03855 
0.0248571 1.05562 1.03601 
0.0441107 1.07464 1.02282 
0.0448322 1.07442 1.02348 
0.0458027 1.07445 1.02395 
0.0467731 1.07449 1.02442 
0.0475776 1.07435 1.02501 
0.0486309 1.07448 1.02542 
0.0494353 1.07434 1.02601 
0.0502399 1.0742 1.02661 
0.0513763 1.07441 1.02695 
0.0518488 1.07393 1.02779 
0.0524043 1.07354 1.02857 
0.0530428 1.07323 1.02929 
0.0537643 1.073 1.02994 
0.0550666 1.07339 1.03017 
0.0569498 1.07437 1.02996 
0.0582522 1.07476 1.03018 
0.0598864 1.07549 1.03015 
0.0609399 1.07561 1.03056 
0.0620763 1.07582 1.03091 
0.0631297 1.07594 1.03132 
0.064349 1.07624 1.0316 
0.0655684 1.07654 1.03188 
0.0667877 1.07683 1.03217 
0.0681731 1.0773 1.03233 
0.0693925 1.0776 1.03261 
0.0707778 1.07807 1.03277 
0.072412 1.0788 1.03275 
0.0771201 1.08127 1.03222 
0.0782565 1.08148 1.03257 
-0.0501047 1.02822 1.03101 
-0.0497511 1.02761 1.03193 
-0.0492503 1.02715 1.03275 
-0.0487494 1.02669 1.03357 
-0.0483956 1.02608 1.0345 
-0.048042 1.02547 1.03543 
-0.0476147 1.02494 1.0363 
-0.0473346 1.02425 1.03729 
-0.0471279 1.02349 1.03832 
-0.0468477 1.0228 1.03931 
-0.0468618 1.0218 1.04051 
-0.0462875 1.02142 1.04127 
-0.0454923 1.02127 1.04187 
-0.0445503 1.02128 1.04237 
-0.0430932 1.02184 1.04247 
-0.0417098 1.02231 1.04264 
-0.039738 1.02341 1.04237 
-0.037619 1.02466 1.04199 
-0.0346174 1.02684 1.04095 
-0.0330868 1.02746 1.04101 
-0.0308942 1.02879 1.04057 
-0.0303198 1.02841 1.04133 
-0.0293042 1.0285 1.04177 
-0.0276265 1.02929 1.04172 
-0.0266108 1.02937 1.04215 
-0.024492 1.03062 1.04177 
-0.0226671 1.03156 1.04161 
-0.0219457 1.03134 1.04227 
-0.0201944 1.0322 1.04216 
-0.0182962 1.03322 1.04194 
-0.0174275 1.03315 1.04249 
-0.0152351 1.03448 1.04205 
-0.0140723 1.03472 1.04238 
-0.0121738 1.03574 1.04216 
-0.0107169 1.03629 1.04227 
-0.000275861 1.04618 1.03567 
0.00107544 1.04661 1.03585 
0.00203321 1.04663 1.03633 
0.00275465 1.04641 1.03699 
0.00410613 1.04683 1.03717 
0.00553613 1.04734 1.0373 
0.00633632 1.0472 1.03789 
0.00745153 1.04738 1.03825 
0.00888162 1.04789 1.03838 
0.00999683 1.04807 1.03874 
0.0109545 1.04809 1.03922 
0.0126208 1.04884 1.03916 
0.0138934 1.04919 1.03941 
0.0154023 1.04978 1.03947 
0.0173835 1.05085 1.03918 
0.0192073 1.05177 1.03901 
0.0223697 1.05406 1.03784 
0.0439967 1.07555 1.02287 
0.0445522 1.07516 1.02365 
0.0455226 1.07519 1.02412 
0.046493 1.07523 1.02459 
0.0473803 1.07518 1.02513 
0.0481848 1.07504 1.02572 
0.0491551 1.07508 1.02619 
0.0499596 1.07494 1.02678 
0.0510129 1.07507 1.02719 
0.0516514 1.07476 1.02791 
0.052207 1.07436 1.02869 
0.0528456 1.07405 1.02941 
0.053567 1.07383 1.03006 
0.0548692 1.07421 1.03028 
0.0563373 1.07477 1.03038 
0.0578055 1.07532 1.03048 
0.0593566 1.07597 1.03052 
0.0604099 1.07609 1.03093 
0.0614632 1.07621 1.03134 
0.0626824 1.07651 1.03162 
0.0639017 1.07681 1.0319 
0.0649549 1.07693 1.03231 
0.0663402 1.0774 1.03247 
0.0678083 1.07796 1.03257 
0.0688617 1.07808 1.03298 
0.0702469 1.07855 1.03314 
0.0718808 1.07928 1.03312 
0.0749253 1.08148 1.03204 
0.0765883 1.08175 1.03259 
-0.0502359 1.02905 1.03105 
-0.050029 1.02829 1.03209 
-0.0496017 1.02775 1.03297 
-0.0491008 1.0273 1.03378 
-0.0486734 1.02676 1.03466 
-0.0483195 1.02615 1.03559 
-0.047892 1.02562 1.03646 
-0.0475382 1.02501 1.03739 
-0.0473314 1.02424 1.03842 
-0.047051 1.02355 1.03941 
-0.0470647 1.02256 1.04061 
-0.0467844 1.02187 1.04159 
-0.0459895 1.02172 1.04219 
-0.0451208 1.02165 1.04274 
-0.0434436 1.02244 1.04268 
-0.0423546 1.0226 1.04307 
-0.0406773 1.02339 1.04301 
-0.0380443 1.02518 1.04225 
-0.0352641 1.02713 1.04138 
-0.0338074 1.02768 1.04149 
-0.0324977 1.02808 1.04171 
-0.0308205 1.02887 1.04166 
-0.030099 1.02864 1.04231 
-0.0287892 1.02904 1.04253 
-0.0273325 1.02959 1.04264 
-0.0261699 1.02984 1.04297 
-0.0244191 1.0307 1.04286 
-0.0226685 1.03156 1.04276 
-0.0214322 1.03188 1.04303 
-0.0198286 1.03259 1.04303 
-0.0182983 1.03322 1.04309 
-0.0169885 1.03362 1.04331 
-0.0149436 1.03479 1.04298 
-0.013487 1.03534 1.04309 
-0.0112951 1.03667 1.04266 
-0.00078958 1.04664 1.03601 
-6.81384e-05 1.04642 1.03667 
0.00144038 1.04701 1.03673 
0.00231937 1.04695 1.03727 
0.00335569 1.04705 1.03769 
0.00447061 1.04724 1.03805 
0.00582172 1.04766 1.03824 
0.00670063 1.0476 1.03877 
0.00789428 1.04787 1.03908 
0.009639 1.0487 1.03896 
0.0105179 1.04864 1.0395 
0.0117903 1.04899 1.03974 
0.0130627 1.04933 1.03999 
0.014886 1.05025 1.03982 
0.0171816 1.05165 1.03929 
0.0183753 1.05191 1.0396 
0.0213793 1.05405 1.03854 
0.0227303 1.05447 1.03873 
0.044438 1.07607 1.02371 
0.0453254 1.07602 1.02424 
0.0461298 1.07588 1.02483 
0.0470171 1.07583 1.02537 
0.0479045 1.07578 1.0259 
0.0489577 1.07591 1.02631 
0.0498452 1.07586 1.02684 
0.0508154 1.07589 1.02731 
0.051371 1.0755 1.02809 
0.0519266 1.0751 1.02887 
0.0524822 1.0747 1.02965 
0.0532866 1.07457 1.03024 
0.0547546 1.07512 1.03034 
0.0559736 1.07542 1.03062 
0.0574416 1.07598 1.03072 
0.0588267 1.07645 1.03088 
0.0598799 1.07657 1.03129 
0.0610161 1.07678 1.03164 
0.062567 1.07743 1.03168 
0.0637861 1.07772 1.03196 
0.0650053 1.07802 1.03225 
0.0666391 1.07875 1.03222 
0.0680241 1.07922 1.03238 
0.0686626 1.07891 1.0331 
0.0698818 1.07921 1.03339 
0.0713497 1.07976 1.03349 
0.0743106 1.08188 1.03247 
0.0763052 1.0825 1.03278 
-0.0504473 1.02931 1.03176 
-0.0501668 1.02863 1.03274 
-0.0496658 1.02817 1.03356 
-0.0492383 1.02764 1.03443 
-0.0488108 1.0271 1.03531 
-0.0483833 1.02657 1.03618 
-0.0480293 1.02596 1.03711 
-0.0476752 1.02535 1.03803 
-0.0474683 1.02458 1.03907 
-0.0472613 1.02381 1.04011 
-0.0472747 1.02281 1.04131 
-0.0467736 1.02236 1.04213 
-0.0459786 1.02221 1.04273 
-0.0449633 1.0223 1.04317 
-0.0435804 1.02278 1.04333 
-0.042418 1.02302 1.04366 
-0.040741 1.0238 1.04361 
-0.0384762 1.02521 1.04312 
-0.035403 1.02747 1.04203 
-0.0337995 1.02818 1.04203 
-0.0324166 1.02866 1.0422 
-0.0308867 1.02929 1.04225 
-0.0301653 1.02906 1.04291 
-0.0290763 1.02923 1.04329 
-0.0273258 1.03009 1.04319 
-0.0254285 1.03111 1.04297 
-0.0241925 1.03143 1.04324 
-0.0226626 1.03206 1.0433 
-0.0216473 1.03215 1.04374 
-0.0196763 1.03325 1.04347 
-0.0182935 1.03372 1.04363 
-0.0159551 1.03521 1.04309 
-0.0147927 1.03545 1.04342 
-0.0134832 1.03585 1.04364 
-0.0118064 1.03663 1.04359 
-0.000863834 1.04708 1.03662 
-0.0002997 1.04669 1.0374 
0.000972524 1.04704 1.03764 
0.00232334 1.04747 1.03782 
0.00312349 1.04732 1.03842 
0.00423835 1.04751 1.03878 
0.0058252 1.04818 1.03879 
0.0065467 1.04796 1.03944 
0.00781888 1.0483 1.03969 
0.00979915 1.04938 1.0394 
0.0105993 1.04924 1.04 
0.0116354 1.04934 1.04042 
0.013301 1.05009 1.04037 
0.0150452 1.05093 1.04026 
0.0173402 1.05233 1.03973 
0.0190057 1.05308 1.03968 
0.0211433 1.05432 1.03928 
0.0439629 1.07709 1.02344 
0.0446014 1.07678 1.02415 
0.0454887 1.07673 1.02469 
0.0462103 1.07651 1.02534 
0.0474292 1.07681 1.02563 
0.0482336 1.07667 1.02622 
0.0490381 1.07653 1.02681 
0.050257 1.07683 1.0271 
0.0508126 1.07643 1.02788 
0.0513684 1.07604 1.02866 
0.051924 1.07564 1.02944 
0.0526455 1.07542 1.03009 
0.0539474 1.0758 1.03031 
0.0554152 1.07636 1.03041 
0.0566341 1.07666 1.0307 
0.0577702 1.07687 1.03105 
0.0591551 1.07734 1.03121 
0.0607888 1.07807 1.03118 
0.0622566 1.07863 1.03128 
0.0632267 1.07866 1.03175 
0.0645286 1.07905 1.03198 
0.0658306 1.07943 1.0322 
0.0672983 1.07999 1.0323 
0.0682686 1.08002 1.03277 
0.0717598 1.08074 1.03375 
0.0739739 1.08208 1.03329 
-0.0505787 1.03015 1.03181 
-0.0505185 1.02923 1.03295 
-0.0500173 1.02877 1.03377 
-0.0495162 1.02832 1.03459 
-0.0490886 1.02778 1.03546 
-0.0487345 1.02717 1.03639 
-0.0483068 1.02664 1.03726 
-0.0480261 1.02595 1.03824 
-0.0477454 1.02526 1.03923 
-0.0475382 1.02449 1.04026 
-0.0474043 1.02365 1.04135 
-0.0471237 1.02296 1.04234 
-0.0464757 1.02266 1.04305 
-0.045387 1.02282 1.04343 
-0.0441512 1.02315 1.0437 
-0.0430624 1.02331 1.04409 
-0.0410187 1.02449 1.04376 
-0.0389748 1.02566 1.04344 
-0.0382532 1.02544 1.04409 
-0.0344464 1.02848 1.04246 
-0.0330638 1.02895 1.04263 
-0.0313136 1.02982 1.04252 
-0.0305922 1.02959 1.04318 
-0.0295768 1.02968 1.04362 
-0.0277534 1.03062 1.04346 
-0.0264442 1.03102 1.04368 
-0.0253555 1.03119 1.04406 
-0.023385 1.03229 1.04379 
-0.0221493 1.03261 1.04407 
-0.0200321 1.03386 1.04369 
-0.0190168 1.03395 1.04412 
-0.0171198 1.03497 1.04391 
-0.0158106 1.03536 1.04413 
-0.0140607 1.03623 1.04402 
-0.0123842 1.03702 1.04397 
-0.0110015 1.03749 1.04414 
-0.000734614 1.04724 1.03768 
0.000301379 1.04734 1.0381 
0.00188788 1.04801 1.03811 
0.00253085 1.04771 1.03882 
0.00333091 1.04756 1.03942 
0.00460283 1.04791 1.03966 
0.00618943 1.04858 1.03967 
0.0071468 1.0486 1.04015 
0.00857604 1.04911 1.04028 
0.0100839 1.0497 1.04034 
0.0109627 1.04964 1.04088 
0.0126279 1.0504 1.04083 
0.0142144 1.05107 1.04084 
0.0158796 1.05182 1.04079 
0.0179379 1.05298 1.04044 
0.0203896 1.05455 1.0398 
0.0439313 1.07809 1.02343 
0.0442382 1.07743 1.02439 
0.0454571 1.07773 1.02468 
0.0460956 1.07742 1.0254 
0.0472316 1.07763 1.02574 
0.0479531 1.07741 1.0264 
0.0488405 1.07736 1.02693 
0.0499764 1.07757 1.02728 
0.0506149 1.07726 1.02799 
0.0511707 1.07686 1.02877 
0.0517264 1.07647 1.02955 
0.0524478 1.07624 1.03021 
0.0538326 1.07671 1.03037 
0.0551343 1.0771 1.03059 
0.0571822 1.07826 1.03026 
0.0579866 1.07813 1.03086 
0.0591226 1.07834 1.0312 
0.0605072 1.07881 1.03136 
0.0617262 1.07911 1.03165 
0.0628622 1.07932 1.032 
0.0643298 1.07988 1.0321 
0.0659632 1.08061 1.03207 
0.0670163 1.08073 1.03248 
0.0680693 1.08085 1.03289 
0.0706975 1.08263 1.03213 
0.0733302 1.08294 1.03315 
0.0739688 1.08263 1.03387 
-0.0506369 1.03107 1.0318 
-0.0507231 1.02999 1.03305 
-0.0502954 1.02946 1.03393 
-0.0497942 1.029 1.03475 
-0.0494399 1.02839 1.03567 
-0.0490122 1.02786 1.03655 
-0.0485844 1.02732 1.03742 
-0.0482301 1.02671 1.03835 
-0.0479492 1.02602 1.03933 
-0.0477418 1.02525 1.04036 
-0.047461 1.02456 1.04135 
-0.0474738 1.02356 1.04254 
-0.0469727 1.02311 1.04336 
-0.0460308 1.02312 1.04386 
-0.0447953 1.02344 1.04413 
-0.0434864 1.02384 1.04435 
-0.0412961 1.02517 1.04392 
-0.039767 1.0258 1.04398 
-0.0382377 1.02643 1.04403 
-0.0355336 1.02831 1.04322 
-0.0337106 1.02925 1.04306 
-0.031814 1.03027 1.04285 
-0.0311661 1.02997 1.04356 
-0.0300774 1.03014 1.04394 
-0.0289153 1.03038 1.04427 
-0.0270924 1.03132 1.04411 
-0.0262239 1.03125 1.04466 
-0.0241807 1.03243 1.04433 
-0.0227983 1.03291 1.0445 
-0.0209753 1.03385 1.04434 
-0.0198132 1.03409 1.04467 
-0.0186512 1.03434 1.045 
-0.0168281 1.03528 1.04484 
-0.015152 1.03607 1.04479 
-0.012668 1.03771 1.04414 
-0.0116529 1.0378 1.04458 
-0.00968303 1.03889 1.04431 
-0.000290842 1.04772 1.0385 
0.000823621 1.04791 1.03886 
0.00209538 1.04825 1.03911 
0.00289548 1.04811 1.0397 
0.00416724 1.04846 1.03995 
0.005832 1.04921 1.0399 
0.00663209 1.04907 1.04049 
0.00790386 1.04942 1.04074 
0.00917559 1.04976 1.04098 
0.0106046 1.05027 1.04111 
0.0118763 1.05062 1.04135 
0.0135411 1.05137 1.0413 
0.0155989 1.05253 1.04096 
0.0176568 1.0537 1.04061 
0.0199505 1.0551 1.04009 
0.0437337 1.07892 1.02355 
0.0440407 1.07826 1.02451 
0.0452596 1.07856 1.0248 
0.045898 1.07825 1.02551 
0.047034 1.07846 1.02586 
0.0478383 1.07832 1.02645 
0.0485597 1.0781 1.02711 
0.0498614 1.07848 1.02733 
0.0504172 1.07809 1.02811 
0.0509728 1.07769 1.02889 
0.0516115 1.07738 1.02961 
0.052333 1.07716 1.03026 
0.0537175 1.07763 1.03043 
0.0550192 1.07801 1.03065 
0.0569839 1.07909 1.03038 
0.0577053 1.07887 1.03104 
0.0588412 1.07908 1.03138 
0.0599771 1.07929 1.03173 
0.0612787 1.07968 1.03195 
0.0623317 1.0798 1.03236 
0.0641308 1.0807 1.03222 
0.0655152 1.08118 1.03238 
0.0665683 1.0813 1.03279 
0.0677041 1.08151 1.03313 
0.0703319 1.08329 1.03237 
0.0728231 1.08443 1.03231 
0.0741003 1.08381 1.03374 
0.0783028 1.08723 1.03181 
-0.0509951 1.03118 1.03261 
-0.0508611 1.03033 1.0337 
-0.0503596 1.02987 1.03452 
-0.0499319 1.02934 1.03539 
-0.0495039 1.02881 1.03627 
-0.0491496 1.02819 1.03719 
-0.0487217 1.02766 1.03807 
-0.0483672 1.02705 1.03899 
-0.0481597 1.02628 1.04003 
-0.0478785 1.02559 1.04101 
-0.0476709 1.02482 1.04205 
-0.0476101 1.0239 1.04319 
-0.046962 1.0236 1.0439 
-0.0461671 1.02345 1.0445 
-0.0448584 1.02385 1.04472 
-0.043256 1.02456 1.04473 
-0.0414335 1.02551 1.04457 
-0.0401247 1.0259 1.04479 
-0.0382288 1.02693 1.04457 
-0.0357456 1.02857 1.04393 
-0.0337763 1.02967 1.04366 
-0.0318069 1.03077 1.04339 
-0.0310855 1.03054 1.04405 
-0.0300704 1.03063 1.04448 
-0.0290553 1.03072 1.04492 
-0.0270858 1.03182 1.04465 
-0.0260709 1.03191 1.04509 
-0.024395 1.0327 1.04504 
-0.0230129 1.03317 1.04521 
-0.0211904 1.03412 1.04505 
-0.0196614 1.03475 1.04511 
-0.018573 1.03491 1.04549 
-0.0164568 1.03617 1.04512 
-0.0148544 1.03688 1.04512 
-0.0127381 1.03813 1.04474 
-0.0115763 1.03838 1.04507 
-0.00968046 1.0394 1.04486 
-0.000365127 1.04815 1.03911 
0.00067068 1.04826 1.03953 
0.0020993 1.04877 1.03966 
0.00282082 1.04854 1.04031 
0.00401381 1.04881 1.04062 
0.00599248 1.04989 1.04033 
0.00663547 1.04959 1.04105 
0.00782835 1.04985 1.04135 
0.00925706 1.05036 1.04148 
0.0108429 1.05103 1.04149 
0.0121929 1.05146 1.04167 
0.0141717 1.05254 1.04139 
0.017172 1.05468 1.04034 
0.0180506 1.05462 1.04088 
0.0202651 1.05595 1.04042 
0.0436481 1.07937 1.02418 
0.044701 1.07949 1.02459 
0.0454225 1.07927 1.02524 
0.0460612 1.07896 1.02596 
0.047114 1.07909 1.02637 
0.048167 1.07921 1.02678 
0.0490542 1.07916 1.02731 
0.0499414 1.07911 1.02784 
0.0504971 1.07871 1.02862 
0.0510528 1.07832 1.0294 
0.0518572 1.07818 1.02999 
0.052993 1.07839 1.03034 
0.0547917 1.0793 1.03019 
0.0557617 1.07934 1.03066 
0.0568975 1.07955 1.03101 
0.0579505 1.07967 1.03142 
0.0588377 1.07962 1.03195 
0.0599734 1.07983 1.0323 
0.061275 1.08022 1.03252 
0.0627422 1.08078 1.03263 
0.0642094 1.08134 1.03273 
0.065428 1.08163 1.03301 
0.0665638 1.08185 1.03336 
0.0681139 1.08249 1.0334 
0.0727057 1.08535 1.03237 
0.0782968 1.08778 1.03238 
-0.0512066 1.03144 1.03332 
-0.0509255 1.03075 1.0343 
-0.0504973 1.03021 1.03517 
-0.0500694 1.02968 1.03604 
-0.0496414 1.02914 1.03691 
-0.0492135 1.02861 1.03779 
-0.0488589 1.028 1.03871 
-0.0485043 1.02738 1.03964 
-0.048223 1.02669 1.04062 
-0.0480152 1.02593 1.04166 
-0.0479541 1.025 1.0428 
-0.0476729 1.02431 1.04378 
-0.0469515 1.02409 1.04444 
-0.0460098 1.0241 1.04493 
-0.0448481 1.02434 1.04526 
-0.0432461 1.02505 1.04526 
-0.041424 1.026 1.04511 
-0.0400421 1.02648 1.04527 
-0.0382935 1.02734 1.04517 
-0.0356641 1.02914 1.04441 
-0.0337686 1.03017 1.0442 
-0.0317998 1.03127 1.04393 
-0.0310048 1.03112 1.04453 
-0.0299899 1.03121 1.04497 
-0.0289016 1.03137 1.04536 
-0.0271529 1.03224 1.04525 
-0.0259178 1.03256 1.04553 
-0.0244626 1.03312 1.04564 
-0.0227138 1.03398 1.04554 
-0.0212585 1.03454 1.04565 
-0.0198033 1.03509 1.04576 
-0.0173208 1.03674 1.04512 
-0.0163059 1.03683 1.04555 
-0.0146305 1.03762 1.0455 
-0.0128818 1.03848 1.0454 
-0.0105461 1.03997 1.04486 
-0.00139648 1.04857 1.03924 
-0.000439293 1.04859 1.03972 
0.000439272 1.04853 1.04026 
0.00194611 1.04912 1.04033 
0.00282474 1.04906 1.04087 
0.00401754 1.04933 1.04117 
0.0059957 1.05041 1.04089 
0.00663866 1.0501 1.0416 
0.00790991 1.05045 1.04184 
0.00918125 1.0508 1.04209 
0.0109238 1.05163 1.04198 
0.0126664 1.05247 1.04187 
0.0148802 1.0538 1.04141 
0.0174083 1.05545 1.04072 
0.0186795 1.0558 1.04096 
0.0207364 1.05696 1.04062 
0.0439767 1.08026 1.0245 
0.0447811 1.08012 1.02509 
0.0455854 1.07999 1.02569 
0.0466383 1.08011 1.0261 
0.0473597 1.07989 1.02675 
0.0482469 1.07984 1.02728 
0.0492997 1.07996 1.02769 
0.0499384 1.07965 1.02841 
0.0504113 1.07917 1.02925 
0.0512984 1.07912 1.02978 
0.0521857 1.07907 1.03031 
0.0539012 1.07989 1.03023 
0.0549541 1.08002 1.03064 
0.0559241 1.08005 1.03111 
0.056894 1.08009 1.03158 
0.057864 1.08013 1.03205 
0.0589169 1.08025 1.03246 
0.0599698 1.08038 1.03287 
0.0611883 1.08068 1.03316 
0.062821 1.08141 1.03313 
0.0641224 1.08179 1.03336 
0.0653409 1.08209 1.03365 
0.0666423 1.08248 1.03387 
0.0682751 1.08321 1.03385 
0.073363 1.08659 1.03245 
0.0762143 1.08762 1.03271 
-0.0511859 1.03293 1.03266 
-0.0514179 1.0317 1.03402 
-0.0510631 1.03108 1.03494 
-0.0505616 1.03063 1.03576 
-0.0501336 1.03009 1.03663 
-0.0497788 1.02948 1.03756 
-0.0493508 1.02895 1.03843 
-0.048996 1.02833 1.03936 
-0.0486412 1.02772 1.04029 
-0.0484331 1.02695 1.04132 
-0.0482252 1.02618 1.04236 
-0.0481638 1.02526 1.0435 
-0.047809 1.02465 1.04443 
-0.0470141 1.0245 1.04503 
-0.0458526 1.02475 1.04536 
-0.0449112 1.02476 1.04585 
-0.0433095 1.02547 1.04586 
-0.0413412 1.02657 1.04559 
-0.0400328 1.02697 1.04581 
-0.0383579 1.02776 1.04576 
-0.0355094 1.02979 1.04485 
-0.0337611 1.03066 1.04474 
-0.0319394 1.03161 1.04458 
-0.0311445 1.03146 1.04519 
-0.0300564 1.03163 1.04557 
-0.0286749 1.03211 1.04574 
-0.026633 1.03328 1.04542 
-0.0255448 1.03345 1.0458 
-0.0240166 1.03408 1.04586 
-0.0227083 1.03448 1.04608 
-0.0211068 1.0352 1.04609 
-0.0197985 1.0356 1.04631 
-0.0177567 1.03677 1.04599 
-0.0164486 1.03717 1.04621 
-0.0146269 1.03812 1.04605 
-0.0131719 1.03868 1.04617 
-0.0112036 1.03978 1.0459 
-0.00147055 1.049 1.03985 
-0.000592165 1.04894 1.04039 
0.000364866 1.04896 1.04087 
0.00187147 1.04955 1.04094 
0.00290709 1.04966 1.04136 
0.00409968 1.04992 1.04166 
0.00584176 1.05076 1.04156 
0.00664175 1.05062 1.04215 
0.00783436 1.05089 1.04246 
0.00934095 1.05148 1.04253 
0.0111616 1.0524 1.04236 
0.0132964 1.05364 1.04196 
0.014803 1.05423 1.04203 
0.0174088 1.05597 1.04128 
0.0192295 1.05689 1.04111 
0.0434181 1.0812 1.02429 
0.0442224 1.08106 1.02488 
0.0449438 1.08084 1.02554 
0.0459966 1.08096 1.02595 
0.0466352 1.08065 1.02667 
0.0476051 1.08069 1.02714 
0.0489064 1.08108 1.02736 
0.0494623 1.08068 1.02814 
0.0500181 1.08028 1.02892 
0.0506567 1.07997 1.02963 
0.0520408 1.08044 1.0298 
0.0531764 1.08066 1.03015 
0.0540635 1.08061 1.03068 
0.0550335 1.08065 1.03115 
0.0559206 1.0806 1.03168 
0.0568076 1.08055 1.03221 
0.0579432 1.08076 1.03256 
0.0589132 1.0808 1.03303 
0.0598831 1.08083 1.0335 
0.0611017 1.08113 1.03379 
0.0625684 1.08169 1.03389 
0.0638697 1.08208 1.03412 
0.0652538 1.08255 1.03428 
0.0666378 1.08302 1.03444 
0.068436 1.08393 1.0343 
-0.0516173 1.03296 1.03352 
-0.0515556 1.03203 1.03467 
-0.0512009 1.03142 1.03559 
-0.0506993 1.03097 1.03641 
-0.0503443 1.03035 1.03734 
-0.0499162 1.02982 1.03821 
-0.0494879 1.02928 1.03908 
-0.0491331 1.02867 1.04001 
-0.0488515 1.02798 1.04099 
-0.0486431 1.02721 1.04202 
-0.0485082 1.02636 1.04311 
-0.0483733 1.02552 1.0442 
-0.0479451 1.02498 1.04507 
-0.0471503 1.02484 1.04567 
-0.0459156 1.02516 1.04595 
-0.0446809 1.02548 1.04623 
-0.0430796 1.02619 1.04623 
-0.0411117 1.0273 1.04597 
-0.0397305 1.02777 1.04613 
-0.0381291 1.02849 1.04614 
-0.0352083 1.0306 1.04517 
-0.0335337 1.03139 1.04512 
-0.0320057 1.03203 1.04518 
-0.0312109 1.03188 1.04578 
-0.0299762 1.0322 1.04606 
-0.0284482 1.03284 1.04612 
-0.0267003 1.03371 1.04602 
-0.0257588 1.03372 1.04651 
-0.0236444 1.03497 1.04614 
-0.0228496 1.03483 1.04674 
-0.0206618 1.03616 1.04631 
-0.0192072 1.03672 1.04642 
-0.0182657 1.03673 1.04692 
-0.0165912 1.03752 1.04687 
-0.0146233 1.03862 1.0466 
-0.0119956 1.04043 1.04585 
-0.0113475 1.04013 1.04656 
-0.0015448 1.04943 1.04046 
-0.000823388 1.04921 1.04112 
0.000369114 1.04948 1.04142 
0.00226781 1.05048 1.0412 
0.00283228 1.05009 1.04197 
0.00394617 1.05028 1.04233 
0.00584491 1.05128 1.04211 
0.0066449 1.05114 1.04271 
0.00791576 1.05148 1.04295 
0.00950055 1.05216 1.04296 
0.0116347 1.0534 1.04256 
0.0133765 1.05424 1.04246 
0.0152753 1.05524 1.04223 
0.0174878 1.05657 1.04178 
0.0433029 1.08211 1.02435 
0.0439416 1.0818 1.02506 
0.0448285 1.08175 1.0256 
0.045964 1.08196 1.02594 
0.0465199 1.08157 1.02672 
0.0477382 1.08187 1.02701 
0.0487081 1.0819 1.02748 
0.049264 1.08151 1.02826 
0.049737 1.08102 1.0291 
0.0505413 1.08089 1.02969 
0.052008 1.08145 1.02979 
0.0528123 1.08131 1.03039 
0.0536995 1.08126 1.03092 
0.0546693 1.0813 1.03139 
0.0553908 1.08108 1.03205 
0.0561951 1.08094 1.03264 
0.0572477 1.08107 1.03305 
0.0583832 1.08128 1.0334 
0.0592702 1.08123 1.03393 
0.060323 1.08135 1.03434 
0.0613757 1.08148 1.03475 
0.0628423 1.08204 1.03485 
0.0641435 1.08242 1.03508 
0.0658586 1.08325 1.03499 
0.0674081 1.08389 1.03503 
-0.0518229 1.03372 1.03363 
-0.0518345 1.03272 1.03482 
-0.0514792 1.03211 1.03575 
-0.0509776 1.03165 1.03657 
-0.0506227 1.03104 1.03749 
-0.0501943 1.0305 1.03837 
-0.0498393 1.02989 1.03929 
-0.0494109 1.02935 1.04016 
-0.0491291 1.02866 1.04114 
-0.0489207 1.02789 1.04218 
-0.0487122 1.02712 1.04321 
-0.0486504 1.0262 1.04436 
-0.0483686 1.02551 1.04534 
-0.0476471 1.02528 1.04599 
-0.0467058 1.02529 1.04648 
-0.0450315 1.02609 1.04644 
-0.0437971 1.02641 1.04671 
-0.0414632 1.0279 1.04618 
-0.0405953 1.02783 1.04673 
-0.0382615 1.02933 1.04619 
-0.035781 1.03098 1.04555 
-0.0342533 1.03161 1.04561 
-0.0323594 1.03263 1.0454 
-0.0315646 1.03249 1.046 
-0.0304034 1.03273 1.04633 
-0.0291689 1.03306 1.04661 
-0.027055 1.03432 1.04623 
-0.0261869 1.03425 1.04678 
-0.0252456 1.03426 1.04727 
-0.0232782 1.03536 1.04701 
-0.022117 1.03561 1.04734 
-0.0202963 1.03655 1.04718 
-0.0186221 1.03734 1.04714 
-0.0168012 1.03829 1.04698 
-0.0148339 1.03939 1.04671 
-0.0136727 1.03964 1.04705 
-0.0117054 1.04074 1.04678 
-0.00893179 1.0427 1.04592 
-0.00133665 1.04967 1.04146 
-0.000301333 1.04978 1.04188 
0.000969214 1.05012 1.04213 
0.00247523 1.05072 1.0422 
0.0032752 1.05058 1.04279 
0.00462425 1.05101 1.04298 
0.00636561 1.05185 1.04288 
0.00732243 1.05187 1.04336 
0.00929917 1.05295 1.04307 
0.0112759 1.05404 1.04279 
0.0126249 1.05447 1.04298 
0.0143663 1.0553 1.04287 
0.0176766 1.05778 1.0416 
0.0429923 1.08331 1.02395 
0.0434654 1.08283 1.02479 
0.0443524 1.08278 1.02532 
0.0450739 1.08256 1.02598 
0.0461265 1.08268 1.02639 
0.0470135 1.08263 1.02692 
0.0480661 1.08276 1.02733 
0.0487875 1.08253 1.02799 
0.0494263 1.08222 1.0287 
0.0501478 1.082 1.02936 
0.0514488 1.08239 1.02958 
0.0520874 1.08208 1.0303 
0.0528917 1.08194 1.0309 
0.0538615 1.08198 1.03137 
0.0546659 1.08184 1.03196 
0.0553045 1.08153 1.03268 
0.0560259 1.08131 1.03333 
0.0571613 1.08152 1.03368 
0.0582139 1.08165 1.03409 
0.0591838 1.08168 1.03456 
0.0602364 1.08181 1.03497 
0.061289 1.08193 1.03538 
0.0625899 1.08232 1.03561 
0.0638081 1.08262 1.03589 
0.0656058 1.08353 1.03575 
0.0670722 1.08409 1.03585 
-0.0521075 1.0339 1.03438 
-0.0519721 1.03306 1.03547 
-0.0515437 1.03252 1.03634 
-0.051042 1.03206 1.03716 
-0.0506869 1.03145 1.03809 
-0.0503316 1.03084 1.03901 
-0.0499764 1.03022 1.03994 
-0.0496212 1.02961 1.04087 
-0.0492659 1.029 1.04179 
-0.0491306 1.02815 1.04288 
-0.0488487 1.02746 1.04386 
-0.0488598 1.02646 1.04506 
-0.048358 1.026 1.04587 
-0.0477098 1.0257 1.04658 
-0.0466953 1.02579 1.04702 
-0.0450215 1.02658 1.04697 
-0.0437139 1.02698 1.0472 
-0.0414541 1.02839 1.04672 
-0.0405129 1.02841 1.04721 
-0.0383995 1.02967 1.04684 
-0.0355536 1.03171 1.04593 
-0.0338797 1.0325 1.04588 
-0.0324257 1.03305 1.04599 
-0.0313379 1.03322 1.04638 
-0.0301034 1.03354 1.04666 
-0.0282101 1.03457 1.04645 
-0.0271222 1.03474 1.04683 
-0.0259611 1.03498 1.04716 
-0.0242142 1.03585 1.04706 
-0.0231263 1.03602 1.04745 
-0.021013 1.03728 1.04707 
-0.0202183 1.03713 1.04768 
-0.0184711 1.038 1.04757 
-0.0166508 1.03895 1.04742 
-0.0149038 1.03982 1.04732 
-0.0122043 1.0417 1.04651 
-0.0111899 1.04179 1.04695 
-0.00268118 1.04976 1.04182 
-0.00133231 1.05019 1.04201 
1.64853e-05 1.05062 1.0422 
0.00167899 1.05137 1.04215 
0.00247881 1.05123 1.04275 
0.00335718 1.05117 1.04329 
0.00478445 1.05169 1.04342 
0.00652541 1.05253 1.04331 
0.0080311 1.05312 1.04338 
0.00945831 1.05363 1.04351 
0.0114345 1.05472 1.04323 
0.0134108 1.0558 1.04295 
0.0158574 1.05738 1.04232 
0.0177552 1.05838 1.0421 
0.0430719 1.08394 1.02446 
0.043876 1.0838 1.02505 
0.0445975 1.08358 1.02571 
0.0454845 1.08353 1.02624 
0.0462061 1.08331 1.0269 
0.0475896 1.08378 1.02706 
0.0485593 1.08382 1.02753 
0.0491153 1.08342 1.02831 
0.0501679 1.08355 1.02872 
0.0507238 1.08315 1.0295 
0.051528 1.08302 1.03009 
0.0523323 1.08288 1.03069 
0.0531366 1.08274 1.03128 
0.053858 1.08252 1.03194 
0.0546623 1.08239 1.03253 
0.0553836 1.08216 1.03319 
0.0560224 1.08185 1.0339 
0.0569095 1.0818 1.03444 
0.0580447 1.08202 1.03478 
0.0590145 1.08205 1.03526 
0.060067 1.08218 1.03567 
0.0611195 1.0823 1.03608 
0.0622548 1.08252 1.03642 
0.0635557 1.0829 1.03665 
0.0655186 1.08399 1.03638 
0.0671504 1.08472 1.03636 
0.0765929 1.0927 1.03173 
0.0786399 1.09338 1.032 
-0.052392 1.03409 1.03514 
-0.05211 1.0334 1.03612 
-0.051608 1.03294 1.03694 
-0.0511796 1.0324 1.03781 
-0.0508242 1.03179 1.03874 
-0.0503956 1.03125 1.03961 
-0.0500403 1.03064 1.04053 
-0.0498313 1.02987 1.04157 
-0.049476 1.02926 1.04249 
-0.0492672 1.02849 1.04352 
-0.0489849 1.02779 1.0445 
-0.0489959 1.02679 1.0457 
-0.0484941 1.02633 1.04652 
-0.0476993 1.02619 1.04712 
-0.0466118 1.02636 1.0475 
-0.0450848 1.02699 1.04757 
-0.043631 1.02755 1.04768 
-0.0415181 1.02881 1.04731 
-0.0404307 1.02898 1.0477 
-0.0369264 1.03172 1.0463 
-0.0353262 1.03244 1.04631 
-0.0329937 1.03393 1.04577 
-0.0324187 1.03355 1.04654 
-0.0308916 1.03419 1.0466 
-0.0298041 1.03435 1.04698 
-0.0282771 1.03499 1.04704 
-0.0268966 1.03547 1.04721 
-0.0252963 1.03618 1.04722 
-0.0243552 1.0362 1.04772 
