-0.0395585 1.05935 0.997104 
-0.0387028 1.0603 0.996606 
-0.03291 1.07288 0.991658 
-0.032037 1.07368 0.991194 
-0.0311506 1.07437 0.990757 
-0.030238 1.07482 0.99037 
-0.0292911 1.07498 0.99005 
-0.0283435 1.07513 0.989731 
-0.0273874 1.0752 0.989429 
-0.0264103 1.07509 0.989168 
-0.0254422 1.07506 0.988889 
-0.0244593 1.0749 0.988639 
-0.0234703 1.07469 0.988401 
-0.0224915 1.07457 0.988143 
-0.0215096 1.07442 0.987891 
-0.0205383 1.07436 0.987619 
-0.0195561 1.07421 0.987367 
-0.0185684 1.07401 0.987127 
-0.0171633 1.07017 0.987698 
-0.016061 1.06897 0.987681 
-0.0150126 1.06824 0.987559 
-0.0139555 1.06743 0.987453 
-0.0129379 1.06697 0.98727 
-0.011912 1.06644 0.987104 
-0.0108827 1.06588 0.986945 
-0.00988525 1.06559 0.986723 
-0.00890917 1.06549 0.98646 
-0.00795576 1.06559 0.986152 
-0.00700102 1.06568 0.985848 
-0.00604627 1.06576 0.985543 
-0.00512265 1.06612 0.985178 
-0.00421195 1.06659 0.984787 
-0.00328265 1.0669 0.984433 
-0.00234539 1.06714 0.984094 
-0.00143391 1.06761 0.983705 
-0.000536542 1.06819 0.983289 
0.000386555 1.06876 0.982866 
0.00132993 1.06911 0.98249 
0.0022304 1.06994 0.982004 
0.00342436 1.06757 0.982271 
0.00425648 1.06914 0.981609 
0.00513685 1.07018 0.981072 
0.0060799 1.07055 0.980695 
0.00700288 1.07113 0.980267 
0.0079273 1.07169 0.979843 
0.00884761 1.0723 0.979408 
0.00976586 1.07293 0.978967 
0.0106844 1.07356 0.978528 
0.0116123 1.07409 0.978112 
0.0125519 1.07449 0.977726 
0.0135015 1.07478 0.977367 
0.0144561 1.07501 0.977019 
0.0153975 1.07539 0.976638 
0.0163263 1.07591 0.976225 
0.0362639 1.121 0.958376 
0.037242 1.12115 0.958044 
0.038234 1.1211 0.957762 
0.0392261 1.12104 0.95748 
0.04019 1.1214 0.957097 
-0.0602693 1.06907 1.00146 
-0.0590851 1.06715 1.0016 
-0.0579138 1.06535 1.00172 
-0.05677 1.06378 1.00178 
-0.0556765 1.06266 1.00174 
-0.0546319 1.06196 1.00162 
-0.0536032 1.0614 1.00146 
-0.0525712 1.06082 1.0013 
-0.0515389 1.06023 1.00115 
-0.0505226 1.05978 1.00096 
-0.0495245 1.05949 1.00074 
-0.0485325 1.05925 1.00051 
-0.0475549 1.05914 1.00025 
-0.0465808 1.05906 0.999982 
-0.0455936 1.05886 0.99974 
-0.0445921 1.05854 0.999526 
-0.0435918 1.05823 0.999311 
-0.0426009 1.058 0.999076 
-0.0416351 1.05799 0.998793 
-0.0407081 1.05832 0.998435 
-0.0398092 1.0589 0.998022 
-0.0389535 1.05985 0.997525 
-0.0323689 1.07397 0.991961 
-0.0315325 1.07509 0.991427 
-0.0306185 1.07553 0.991043 
-0.0296904 1.07585 0.990687 
-0.0287474 1.07604 0.990359 
-0.0277982 1.07618 0.990044 
-0.0268203 1.07607 0.989784 
-0.025843 1.07596 0.989524 
-0.0248605 1.0758 0.989273 
-0.0238849 1.07571 0.989009 
-0.0228896 1.07544 0.988783 
-0.0218959 1.07519 0.988554 
-0.0209206 1.0751 0.98829 
-0.0199398 1.07496 0.988036 
-0.0189478 1.07472 0.987804 
-0.0179499 1.07443 0.987583 
-0.0165956 1.07103 0.988055 
-0.0154818 1.06973 0.98806 
-0.0144137 1.06883 0.987975 
-0.0133475 1.06794 0.987887 
-0.0123241 1.06743 0.987716 
-0.0112931 1.06685 0.98756 
-0.0102565 1.06622 0.987414 
-0.00925772 1.06593 0.987195 
-0.00828934 1.0659 0.986917 
-0.00732704 1.06592 0.986628 
-0.0063583 1.06588 0.98635 
-0.00541423 1.06606 0.986025 
-0.00449282 1.06644 0.985655 
-0.00356833 1.0668 0.985292 
-0.00262616 1.06699 0.984963 
-0.00169992 1.06733 0.984603 
-0.000789074 1.0678 0.984213 
0.000109687 1.06844 0.983783 
0.00102427 1.06911 0.983333 
0.00193388 1.06984 0.982871 
0.00284993 1.0705 0.982425 
0.00377779 1.07102 0.982009 
0.00468905 1.07173 0.981551 
0.00563872 1.07202 0.981191 
0.00662595 1.0719 0.980927 
0.0075627 1.07234 0.980534 
0.00850633 1.07269 0.980159 
0.00943728 1.07319 0.979751 
0.0103705 1.07366 0.979349 
0.0112991 1.07418 0.978935 
0.0122452 1.07451 0.978566 
0.0131953 1.07479 0.978208 
0.0141486 1.07504 0.977858 
0.0150994 1.07532 0.9775 
0.0160414 1.0757 0.977121 
0.0169612 1.07631 0.976685 
0.036439 1.12121 0.959058 
0.0374116 1.12144 0.958706 
0.0384017 1.12141 0.958417 
0.0393936 1.12136 0.958134 
0.0403549 1.12176 0.957742 
-0.0601031 1.06919 1.00211 
-0.0588966 1.06708 1.00229 
-0.0577122 1.06516 1.00243 
-0.0565638 1.06355 1.0025 
-0.055467 1.0624 1.00248 
-0.0544328 1.06179 1.00233 
-0.0534041 1.06124 1.00216 
-0.0523688 1.06062 1.00202 
-0.0513381 1.06004 1.00186 
-0.0503206 1.05958 1.00168 
-0.0493141 1.05922 1.00147 
-0.0483175 1.05894 1.00125 
-0.0473489 1.05891 1.00097 
-0.0463834 1.0589 1.00069 
-0.0454012 1.05875 1.00044 
-0.0444059 1.05849 1.00021 
-0.043408 1.0582 0.999992 
-0.0424178 1.05798 0.999756 
-0.041451 1.05796 0.999476 
-0.0405273 1.05832 0.999111 
-0.0396301 1.05891 0.998695 
-0.0387732 1.05986 0.998201 
-0.0318477 1.07523 0.992226 
-0.0309595 1.0759 0.991793 
-0.030044 1.07633 0.991412 
-0.0291199 1.07669 0.991048 
-0.0281772 1.07688 0.990721 
-0.0272149 1.0769 0.990431 
-0.0262453 1.07686 0.990156 
-0.0252693 1.07677 0.989893 
-0.0242775 1.07653 0.98966 
-0.0232903 1.07634 0.989419 
-0.0223041 1.07615 0.989175 
-0.0213108 1.0759 0.988946 
-0.0203247 1.07572 0.988702 
-0.0193365 1.07551 0.988463 
-0.018331 1.07516 0.988257 
-0.017323 1.07478 0.988056 
-0.0163121 1.07438 0.987861 
-0.014961 1.071 0.988326 
-0.0138048 1.06933 0.988412 
-0.0127535 1.06857 0.988295 
-0.0117173 1.06795 0.988149 
-0.0106576 1.06712 0.988048 
-0.00962825 1.06655 0.987888 
-0.00863884 1.06634 0.987651 
-0.00766127 1.06623 0.987391 
-0.00667998 1.06609 0.987138 
-0.0057157 1.06609 0.986853 
-0.00477291 1.06628 0.986525 
-0.00384491 1.06661 0.986169 
-0.00290976 1.06687 0.985826 
-0.00196829 1.06707 0.985496 
-0.00104139 1.0674 0.985138 
-0.00013295 1.0679 0.984744 
0.000770826 1.06854 0.98431 
0.00166337 1.06945 0.983803 
0.00256624 1.07026 0.983323 
0.00346488 1.0711 0.982833 
0.00436054 1.07199 0.982335 
0.0052688 1.07273 0.981869 
0.00618116 1.07343 0.981413 
0.00718498 1.07313 0.981192 
0.00813624 1.0734 0.980837 
0.00908873 1.07366 0.980484 
0.0100327 1.07402 0.98011 
0.0109632 1.07452 0.979701 
0.0119168 1.07477 0.979351 
0.012876 1.07496 0.979016 
0.01383 1.0752 0.978667 
0.0147905 1.07537 0.978335 
0.0157435 1.07563 0.977984 
0.0166776 1.07609 0.977584 
0.0366176 1.12136 0.959752 
0.037577 1.12179 0.959353 
0.0385645 1.1218 0.959055 
0.0395564 1.12175 0.958771 
0.040513 1.12222 0.958363 
-0.0599334 1.06928 1.00276 
-0.0586892 1.06684 1.00302 
-0.0574937 1.06482 1.00318 
-0.0563591 1.06334 1.00323 
-0.0552687 1.06224 1.00318 
-0.0542377 1.06166 1.00303 
-0.0532057 1.06107 1.00287 
-0.0521755 1.0605 1.00272 
-0.0511402 1.05988 1.00257 
-0.0501234 1.05943 1.00238 
-0.0491084 1.05899 1.0022 
-0.0481182 1.05877 1.00196 
-0.0471447 1.0587 1.00169 
-0.0461852 1.05874 1.0014 
-0.0452135 1.05868 1.00113 
-0.044219 1.05843 1.0009 
-0.0432227 1.05815 1.00068 
-0.0422348 1.05795 1.00044 
-0.0412713 1.05796 1.00015 
-0.0403459 1.05831 0.999788 
-0.0394492 1.05891 0.999371 
-0.0385968 1.05989 0.998869 
-0.0312755 1.07605 0.992591 
-0.0303665 1.07654 0.992199 
-0.0294679 1.07712 0.991785 
-0.0285314 1.07737 0.991446 
-0.0275742 1.07744 0.991147 
-0.0266196 1.07753 0.990842 
-0.0256553 1.07753 0.990557 
-0.0246787 1.07743 0.990295 
-0.023698 1.07729 0.990041 
-0.0227006 1.07701 0.989819 
-0.0217114 1.0768 0.989582 
-0.0207123 1.0765 0.989364 
-0.0197171 1.07623 0.989138 
-0.0187181 1.07593 0.98892 
-0.0177013 1.07548 0.988736 
-0.0166909 1.07508 0.98854 
-0.015686 1.07473 0.988333 
-0.0143296 1.07131 0.988807 
-0.0131919 1.06979 0.988857 
-0.0121294 1.06894 0.988761 
-0.0110939 1.06832 0.988614 
-0.0100277 1.06744 0.988525 
-0.00900302 1.06691 0.988357 
-0.00800788 1.06665 0.988131 
-0.00701541 1.06641 0.9879 
-0.00603097 1.06624 0.987653 
-0.00507293 1.0663 0.987356 
-0.00413233 1.06651 0.987024 
-0.0031951 1.06675 0.986686 
-0.00225155 1.06694 0.98636 
-0.00130791 1.06713 0.986034 
-0.00038477 1.06749 0.985669 
0.000526631 1.06796 0.985281 
0.0014309 1.06865 0.984834 
0.00233367 1.06945 0.984354 
0.00322166 1.07042 0.983836 
0.00410112 1.07148 0.983296 
0.00496726 1.07269 0.982722 
0.00585234 1.07368 0.982197 
0.00674308 1.07462 0.981686 
0.00770987 1.07473 0.98137 
0.00871273 1.07444 0.981147 
0.00966078 1.07475 0.980783 
0.0106058 1.07509 0.980411 
0.0115659 1.07527 0.980078 
0.012533 1.07537 0.979763 
0.0135007 1.07547 0.979449 
0.0144677 1.07557 0.979134 
0.0154317 1.07571 0.97881 
0.0163837 1.07598 0.978457 
0.0173051 1.07658 0.978024 
0.0372605 1.12196 0.960191 
0.0382251 1.12231 0.959811 
0.0392181 1.12225 0.959533 
0.040197 1.12239 0.959204 
-0.0603663 1.07043 1.00333 
-0.059119 1.06795 1.00359 
-0.057877 1.06553 1.00384 
-0.0567158 1.06381 1.00394 
-0.055613 1.0626 1.00392 
-0.0545602 1.06183 1.0038 
-0.0535232 1.0612 1.00366 
-0.0524998 1.06069 1.00349 
-0.051467 1.06009 1.00334 
-0.050438 1.05953 1.00318 
-0.0494175 1.05905 1.003 
-0.0484186 1.05875 1.00278 
-0.0474328 1.05857 1.00254 
-0.0464694 1.05858 1.00225 
-0.0455128 1.05865 1.00195 
-0.0445346 1.05854 1.00169 
-0.0435378 1.05826 1.00147 
-0.0425443 1.05801 1.00124 
-0.041567 1.0579 1.00098 
-0.0406208 1.05807 1.00066 
-0.0397161 1.0586 1.00026 
-0.0388312 1.0593 0.999818 
-0.0311367 1.07644 0.993194 
-0.0302425 1.07706 0.992773 
-0.0293534 1.07773 0.992342 
-0.0283952 1.07779 0.992045 
-0.0274413 1.07788 0.991739 
-0.0264985 1.07808 0.991412 
-0.0255498 1.07822 0.991097 
-0.0245803 1.07818 0.990821 
-0.0235953 1.07801 0.990575 
-0.0226019 1.07776 0.990346 
-0.0216111 1.07753 0.990112 
-0.0206202 1.07731 0.989878 
-0.0196083 1.0769 0.989685 
-0.0186045 1.07656 0.989476 
-0.0175842 1.07607 0.989299 
-0.0165625 1.07557 0.989124 
-0.0155585 1.07523 0.988916 
-0.0142406 1.07214 0.989314 
-0.01315 1.07104 0.989273 
-0.0120338 1.06971 0.989281 
-0.0109771 1.06891 0.989175 
-0.00992533 1.06815 0.989058 
-0.0088793 1.06744 0.988931 
-0.00786644 1.06702 0.98874 
-0.00686457 1.0667 0.988527 
-0.00587453 1.06648 0.988291 
-0.00491366 1.06651 0.987999 
-0.00396917 1.06669 0.987675 
-0.00302167 1.06685 0.987357 
-0.00207163 1.06698 0.987044 
-0.00112549 1.06714 0.986724 
-0.000197787 1.06747 0.986367 
0.000716921 1.06791 0.985986 
0.00162935 1.06847 0.985572 
0.00254518 1.06913 0.985125 
0.00344399 1.06998 0.984635 
0.00435099 1.07074 0.984166 
0.00602706 1.07378 0.982874 
0.00689623 1.07495 0.982308 
0.00778436 1.07592 0.98179 
0.00869696 1.07662 0.981335 
0.00970303 1.07629 0.98112 
0.0106954 1.07612 0.98087 
0.0116793 1.07604 0.980597 
0.0126592 1.076 0.980316 
0.0136452 1.0759 0.980049 
0.0146198 1.07592 0.979753 
0.0155888 1.076 0.979443 
0.0165425 1.07625 0.979093 
0.0174672 1.07682 0.978669 
0.0378925 1.12272 0.960592 
0.0388717 1.12286 0.960265 
0.0398599 1.12286 0.959969 
0.0408132 1.12339 0.959549 
-0.0588353 1.06705 1.00446 
-0.0576721 1.06531 1.00456 
-0.0565238 1.0637 1.00463 
-0.0554234 1.06251 1.00461 
-0.0543684 1.06172 1.0045 
-0.053322 1.06101 1.00437 
-0.0523005 1.06051 1.0042 
-0.0512721 1.05996 1.00404 
-0.0502457 1.05942 1.00387 
-0.0492222 1.05891 1.0037 
-0.0482232 1.05861 1.00348 
-0.04724 1.05845 1.00323 
-0.0462713 1.05842 1.00296 
-0.045322 1.05856 1.00264 
-0.0443489 1.05849 1.00237 
-0.043357 1.05825 1.00214 
-0.042366 1.05802 1.00191 
-0.0413826 1.05786 1.00166 
-0.0404371 1.05804 1.00134 
-0.0395296 1.05854 1.00094 
-0.0386567 1.05935 1.00048 
-0.0305589 1.07722 0.993571 
-0.0296924 1.07808 0.993096 
-0.0287384 1.07818 0.992792 
-0.0277748 1.07819 0.992505 
-0.0268408 1.07846 0.992161 
-0.0259069 1.07874 0.991817 
-0.0249452 1.07877 0.991527 
-0.0239588 1.07858 0.991284 
-0.0229654 1.07833 0.991055 
-0.0219861 1.07821 0.990799 
-0.0210019 1.07804 0.990552 
-0.0200069 1.07778 0.990326 
-0.0189954 1.07737 0.990132 
-0.0179855 1.07698 0.989935 
-0.016959 1.07644 0.989769 
-0.0159297 1.07587 0.98961 
-0.0149305 1.07557 0.989392 
-0.0136274 1.07261 0.989761 
-0.0125369 1.07151 0.989719 
-0.0114022 1.07002 0.989763 
-0.0103405 1.06917 0.989666 
-0.00928535 1.06838 0.989556 
-0.00824126 1.06769 0.989425 
-0.0072229 1.06722 0.989244 
-0.00622016 1.06689 0.989033 
-0.00524109 1.06677 0.988776 
-0.0042923 1.06691 0.988461 
-0.00333376 1.06697 0.988165 
-0.00237267 1.067 0.987873 
-0.00141882 1.0671 0.987568 
-0.000483854 1.06736 0.987226 
0.000434207 1.06778 0.986851 
0.0013587 1.06813 0.986489 
0.00228641 1.06862 0.986089 
0.00319912 1.06932 0.985634 
0.00410614 1.07008 0.985165 
0.0050272 1.07069 0.984732 
0.00748692 1.07583 0.982654 
0.00837945 1.07676 0.982148 
0.00928238 1.07756 0.981668 
0.0102165 1.07803 0.981268 
0.0112911 1.07695 0.981229 
0.0122948 1.07666 0.981008 
0.0132886 1.07647 0.980761 
0.0142733 1.07638 0.980491 
0.0152574 1.0763 0.980219 
0.016222 1.07643 0.979898 
0.0171634 1.07681 0.979517 
0.0380449 1.12326 0.961194 
0.0389979 1.12379 0.960773 
0.0399978 1.12363 0.960519 
0.0409669 1.12392 0.960155 
-0.0586632 1.06712 1.00512 
-0.0574829 1.06522 1.00525 
-0.0563402 1.06367 1.00531 
-0.0552376 1.06246 1.00529 
-0.0541682 1.06154 1.00521 
-0.0531216 1.06083 1.00509 
-0.0521011 1.06034 1.00491 
-0.0510725 1.05978 1.00475 
-0.05005 1.05928 1.00457 
-0.0490283 1.05878 1.0044 
-0.0480267 1.05846 1.00419 
-0.0470464 1.05833 1.00393 
-0.0460689 1.05822 1.00367 
-0.045125 1.05841 1.00335 
-0.0441558 1.05837 1.00307 
-0.0431742 1.05823 1.00282 
-0.0421833 1.058 1.00259 
-0.0412005 1.05784 1.00234 
-0.0402546 1.05801 1.00202 
-0.0393467 1.05852 1.00162 
-0.0384791 1.05937 1.00115 
-0.0300146 1.07829 0.993883 
-0.0290855 1.0786 0.993531 
-0.0281127 1.07854 0.993262 
-0.0271765 1.07879 0.992922 
-0.0262534 1.07916 0.992558 
-0.0253045 1.0793 0.992243 
-0.0243168 1.07911 0.992003 
-0.0233182 1.07881 0.991784 
-0.0223372 1.07867 0.991531 
-0.021369 1.07865 0.991254 
-0.0203863 1.07849 0.991004 
-0.0193895 1.07821 0.990781 
-0.0183774 1.0778 0.990589 
-0.0173531 1.07728 0.990419 
-0.0163373 1.07684 0.990233 
-0.015303 1.07623 0.990084 
-0.0142962 1.07586 0.98988 
-0.013277 1.07539 0.989701 
-0.0119055 1.07182 0.990201 
-0.0107822 1.07043 0.990223 
-0.00970396 1.06943 0.990157 
-0.0086492 1.06865 0.990047 
-0.00761241 1.06802 0.989902 
-0.00658462 1.06747 0.989739 
-0.00558607 1.06717 0.98952 
-0.00461779 1.06715 0.989242 
-0.00365645 1.06718 0.988952 
-0.00268493 1.06712 0.98868 
-0.00172151 1.06714 0.988393 
-0.000778683 1.06734 0.988067 
0.000148349 1.06767 0.98771 
0.00107459 1.06801 0.987352 
0.0020054 1.06834 0.986995 
0.00293094 1.0689 0.986573 
0.00384354 1.0696 0.986119 
0.00476885 1.07016 0.985696 
0.00567862 1.0709 0.985234 
0.00853723 1.07704 0.982782 
0.00985779 1.07862 0.981975 
0.0107956 1.07905 0.981585 
0.011895 1.0777 0.981609 
0.0129139 1.07724 0.981427 
0.0139195 1.07692 0.98121 
0.0149106 1.07676 0.980957 
0.0158932 1.0767 0.980681 
0.0168423 1.077 0.98032 
0.017789 1.07733 0.979952 
0.0391278 1.12468 0.961294 
0.040121 1.12462 0.961016 
-0.059109 1.06837 1.00566 
-0.0578991 1.06622 1.00585 
-0.0567316 1.06444 1.00596 
-0.0556061 1.06303 1.00598 
-0.0545045 1.06183 1.00596 
-0.0534421 1.06098 1.00587 
-0.0524121 1.06041 1.00571 
-0.0513916 1.05992 1.00553 
-0.050365 1.05938 1.00536 
-0.0493421 1.05887 1.00519 
-0.0483289 1.05845 1.005 
-0.0473392 1.05824 1.00477 
-0.0463617 1.05813 1.00451 
-0.0453899 1.05807 1.00424 
-0.0444339 1.05815 1.00394 
-0.0434785 1.05824 1.00363 
-0.042496 1.05809 1.00338 
-0.0415074 1.05788 1.00314 
-0.0405451 1.05791 1.00286 
-0.0396136 1.0582 1.00251 
-0.0387317 1.05894 1.00206 
-0.0298699 1.07863 0.994499 
-0.0289461 1.079 0.994136 
-0.0279814 1.079 0.993851 
-0.027046 1.07926 0.993511 
-0.026123 1.07963 0.993147 
-0.0251701 1.07974 0.99284 
-0.0241842 1.07956 0.992596 
-0.0231887 1.07929 0.992371 
-0.0222035 1.07912 0.992127 
-0.0212316 1.07906 0.991857 
-0.0202459 1.07888 0.991613 
-0.0192575 1.07868 0.991374 
-0.0182574 1.07837 0.991158 
-0.0172375 1.07789 0.99098 
-0.0162141 1.07738 0.990809 
-0.0151925 1.07688 0.990635 
-0.0141626 1.07631 0.990476 
-0.013146 1.07586 0.990292 
-0.0118419 1.07288 0.990661 
-0.010702 1.07134 0.990714 
-0.00961595 1.07028 0.990664 
-0.00853361 1.06925 0.990606 
-0.00749587 1.06861 0.990463 
-0.00645293 1.06793 0.990329 
-0.00544778 1.06757 0.990123 
-0.00446744 1.06744 0.989869 
-0.0034927 1.06736 0.989604 
-0.00251893 1.06728 0.989337 
-0.00155509 1.0673 0.989051 
-0.000611152 1.06748 0.988727 
0.000319725 1.06779 0.988378 
0.00124736 1.06812 0.988023 
0.0021792 1.06843 0.98767 
0.00310678 1.06897 0.987253 
0.0040278 1.06958 0.98682 
0.00495648 1.07011 0.986406 
0.0058674 1.07083 0.985947 
0.0104199 1.07983 0.982248 
0.0119783 1.0788 0.982052 
0.0130346 1.07793 0.981965 
0.0140546 1.07745 0.981786 
0.0150465 1.07729 0.981535 
0.0160316 1.07719 0.981265 
0.0169785 1.07752 0.980898 
0.0282375 1.12033 0.966437 
0.0292274 1.12032 0.966147 
0.030228 1.12014 0.965896 
0.0356302 1.12068 0.964154 
-0.0583388 1.06743 1.0064 
-0.0571414 1.06538 1.00656 
-0.0559849 1.0637 1.00665 
-0.0548646 1.06233 1.00666 
-0.0537765 1.06125 1.00662 
-0.0527305 1.06054 1.00649 
-0.0517133 1.06008 1.00631 
-0.0506859 1.05954 1.00614 
-0.049656 1.05897 1.00598 
-0.0486389 1.05851 1.0058 
-0.0476397 1.05821 1.00558 
-0.0466643 1.05812 1.00532 
-0.0456822 1.05798 1.00507 
-0.0447026 1.05785 1.00481 
-0.0437536 1.05799 1.0045 
-0.0428011 1.05811 1.00419 
-0.0418216 1.05798 1.00394 
-0.0408408 1.05785 1.00368 
-0.0398916 1.05799 1.00337 
-0.0389856 1.05851 1.00297 
-0.0381145 1.05934 1.00251 
-0.0288044 1.07937 0.994745 
-0.0278572 1.07953 0.994428 
-0.026915 1.07973 0.994101 
-0.0259922 1.0801 0.993736 
-0.0250334 1.08016 0.993441 
-0.0240541 1.08004 0.993185 
-0.0230665 1.07984 0.992945 
-0.0220666 1.07954 0.992729 
-0.0210729 1.07929 0.9925 
-0.0200866 1.0791 0.992258 
-0.0191001 1.07891 0.992016 
-0.0181127 1.07875 0.991767 
-0.0171062 1.07842 0.991553 
-0.0160798 1.07788 0.991389 
-0.0150617 1.07742 0.991205 
-0.0140266 1.07678 0.991064 
-0.0129979 1.07621 0.990907 
-0.0119764 1.07572 0.990731 
-0.0106289 1.07232 0.991193 
-0.00953619 1.0712 0.991155 
-0.00843461 1.07 0.991134 
-0.0073732 1.06915 0.991036 
-0.00632513 1.06842 0.990912 
-0.00530551 1.06794 0.990734 
-0.00431563 1.06773 0.990498 
-0.00332838 1.06753 0.990257 
-0.00235188 1.06743 0.989996 
-0.00138903 1.06746 0.989709 
-0.000440283 1.0676 0.989394 
0.000494545 1.06787 0.989052 
0.00142387 1.06819 0.988701 
0.00235407 1.06851 0.988347 
0.00328423 1.06902 0.987937 
0.00420699 1.06961 0.987509 
0.00513837 1.07011 0.987102 
0.00604634 1.07087 0.986635 
0.00693339 1.07185 0.986115 
0.0141856 1.07803 0.982351 
0.0151877 1.07775 0.982125 
0.0161714 1.07768 0.981853 
0.0171201 1.07799 0.981491 
0.0284232 1.12037 0.967154 
0.0294113 1.12038 0.966859 
0.0304142 1.12017 0.966616 
0.0314159 1.11998 0.966368 
0.0324093 1.11991 0.966091 
0.0333914 1.12001 0.965774 
0.0343666 1.12022 0.965433 
0.0353328 1.12056 0.965059 
0.0362876 1.12107 0.964645 
0.0454384 1.13988 0.957087 
0.0464109 1.14051 0.956637 
0.0473784 1.14125 0.95616 
-0.0582096 1.06788 1.00698 
-0.0569748 1.0655 1.00721 
-0.0557984 1.06364 1.00733 
-0.0546799 1.06229 1.00735 
-0.0535926 1.06121 1.0073 
-0.0525461 1.0605 1.00717 
-0.0515232 1.05999 1.007 
-0.0504931 1.05942 1.00684 
-0.0494616 1.05884 1.00669 
-0.0484409 1.05835 1.00651 
-0.0474532 1.05815 1.00627 
-0.0464751 1.05804 1.00601 
-0.0454935 1.0579 1.00576 
-0.04451 1.05773 1.00551 
-0.0435553 1.05783 1.00521 
-0.0426136 1.05804 1.00488 
-0.0416404 1.05797 1.00461 
-0.0406586 1.05782 1.00436 
-0.0397061 1.05794 1.00406 
-0.0387983 1.05845 1.00366 
-0.0379279 1.05928 1.0032 
-0.0234423 1.08052 0.99363 
-0.0224261 1.08008 0.993445 
-0.0214086 1.07962 0.993263 
-0.0204066 1.07929 0.993051 
-0.0194156 1.07907 0.992817 
-0.0184402 1.07898 0.992554 
-0.0174542 1.07888 0.992287 
-0.0164464 1.07854 0.992076 
-0.0154237 1.07803 0.991904 
-0.014397 1.07748 0.991741 
-0.0133601 1.07682 0.991605 
-0.0123324 1.07626 0.991445 
-0.0113054 1.07571 0.991284 
-0.00999071 1.07257 0.991688 
-0.00890275 1.07149 0.991641 
-0.00779789 1.07026 0.991626 
-0.00671537 1.06923 0.991569 
-0.00567573 1.06857 0.991429 
-0.00466441 1.06817 0.991235 
-0.00366383 1.06786 0.991019 
-0.0026778 1.06767 0.990777 
-0.00170585 1.06762 0.990507 
-0.000748361 1.06769 0.990209 
0.000194971 1.06788 0.989884 
0.001134 1.06811 0.989551 
0.00206422 1.06842 0.989201 
0.00299549 1.06882 0.988824 
0.00392269 1.06937 0.988406 
0.00485189 1.0699 0.987994 
0.00577635 1.07047 0.98757 
0.00667113 1.07137 0.987069 
0.00753466 1.07262 0.986488 
0.028136 1.12007 0.968095 
0.0291053 1.12037 0.967733 
0.0300961 1.12034 0.967447 
0.0310963 1.12017 0.967195 
0.0320973 1.11999 0.966945 
0.0330823 1.12005 0.966638 
0.0340617 1.1202 0.966312 
0.0350283 1.12053 0.96594 
0.0359915 1.12092 0.965555 
0.0369471 1.12142 0.965144 
0.0456107 1.14028 0.957739 
0.0465858 1.14085 0.957304 
0.0475594 1.14146 0.95686 
0.0485105 1.14257 0.956293 
-0.0580803 1.06832 1.00755 
-0.0567923 1.06547 1.00789 
-0.0556123 1.06358 1.00802 
-0.0545018 1.0623 1.00802 
-0.053414 1.06122 1.00797 
-0.052365 1.06048 1.00785 
-0.0513345 1.05991 1.00769 
-0.0503041 1.05933 1.00753 
-0.0492746 1.05877 1.00737 
-0.0482512 1.05825 1.0072 
-0.0472638 1.05806 1.00696 
-0.0462827 1.05792 1.00671 
-0.0453022 1.05779 1.00645 
-0.0443213 1.05765 1.0062 
-0.0433646 1.05773 1.0059 
-0.0424278 1.05798 1.00556 
-0.041458 1.05795 1.00529 
-0.0404778 1.05781 1.00504 
-0.0395246 1.05792 1.00473 
-0.0386156 1.05842 1.00434 
-0.0377438 1.05925 1.00388 
-0.0227894 1.08065 0.994155 
-0.021759 1.08008 0.993998 
-0.0207388 1.07959 0.99382 
-0.0197341 1.07925 0.993613 
-0.0187508 1.07909 0.993365 
-0.0177789 1.07908 0.993081 
-0.016791 1.07896 0.99282 
-0.0157819 1.0786 0.992612 
-0.0147553 1.07805 0.992449 
-0.0137238 1.07745 0.992299 
-0.0126861 1.07678 0.992165 
-0.0116673 1.07632 0.991983 
-0.0106371 1.07573 0.991829 
-0.00933505 1.07267 0.992218 
-0.00823718 1.0715 0.99219 
-0.00714777 1.07041 0.992145 
-0.00607193 1.06943 0.992074 
-0.00503903 1.06884 0.991922 
-0.0040241 1.0684 0.991734 
-0.00302239 1.06808 0.991521 
-0.00203771 1.06791 0.991276 
-0.00106889 1.06788 0.991001 
-0.000120971 1.06804 0.990685 
0.000828261 1.06818 0.990371 
0.00176464 1.06843 0.990033 
0.00269634 1.06874 0.989683 
0.00363212 1.0692 0.989288 
0.00456175 1.06972 0.988877 
0.00549309 1.07022 0.98847 
0.0064069 1.07091 0.988018 
0.00728421 1.07201 0.987473 
0.00813995 1.07335 0.986872 
0.0288095 1.12021 0.968643 
0.0297865 1.12039 0.968308 
0.0307806 1.12031 0.968034 
0.0317803 1.12015 0.96778 
0.0327697 1.12015 0.967489 
0.0337523 1.12024 0.967174 
0.0347228 1.12052 0.966816 
0.0356894 1.12086 0.966444 
0.0366462 1.12135 0.966038 
0.0457802 1.14073 0.958376 
0.0467546 1.14133 0.957937 
0.047728 1.14194 0.957491 
0.0486848 1.14293 0.956955 
-0.0585111 1.06946 1.00812 
-0.0572297 1.06666 1.00845 
-0.0560321 1.06461 1.00861 
-0.0548835 1.06299 1.00868 
-0.0537818 1.06179 1.00866 
-0.0527089 1.06084 1.00858 
-0.0516628 1.06012 1.00845 
-0.050633 1.05956 1.00829 
-0.0496037 1.05899 1.00813 
-0.048575 1.05843 1.00797 
-0.0475699 1.05809 1.00777 
-0.0465751 1.05783 1.00754 
-0.0455883 1.05764 1.0073 
-0.0446163 1.05758 1.00703 
-0.0436559 1.05763 1.00674 
-0.0427126 1.05782 1.00641 
-0.0417661 1.05799 1.0061 
-0.0407839 1.05784 1.00585 
-0.0398152 1.05781 1.00557 
-0.0388827 1.05811 1.00522 
-0.0379857 1.05871 1.00481 
-0.0221294 1.08071 0.994694 
-0.0210926 1.08008 0.994548 
-0.0200765 1.07964 0.994363 
-0.0190724 1.0793 0.994155 
-0.0180937 1.07918 0.993898 
-0.0171164 1.07917 0.993612 
-0.0161226 1.07898 0.993365 
-0.0151044 1.07853 0.993181 
-0.0140821 1.07802 0.993007 
-0.0130471 1.07738 0.992866 
-0.012016 1.07679 0.992715 
-0.0109995 1.07635 0.992527 
-0.00996203 1.07568 0.992392 
-0.0086706 1.07269 0.992765 
-0.00758719 1.07165 0.992708 
-0.006511 1.07067 0.992638 
-0.00544382 1.06977 0.992551 
-0.00441254 1.06919 0.992395 
-0.00338952 1.06868 0.992223 
-0.00238856 1.06837 0.992009 
-0.0014116 1.06827 0.991749 
-0.000454817 1.06835 0.99145 
0.000502324 1.06842 0.991152 
0.00145774 1.06851 0.990851 
0.00239574 1.06875 0.990516 
0.00332755 1.06917 0.990134 
0.0042636 1.06963 0.989739 
0.00520313 1.07004 0.989353 
0.00613021 1.07059 0.988935 
0.00703311 1.07141 0.988455 
0.00789077 1.07272 0.987859 
0.0285249 1.11987 0.969593 
0.029484 1.12032 0.969195 
0.0304658 1.12043 0.968877 
0.0314595 1.12037 0.968602 
0.0324548 1.12027 0.968332 
0.0334388 1.12035 0.968022 
0.0344145 1.12055 0.967683 
0.0353803 1.12091 0.967308 
0.0363454 1.12127 0.966931 
0.037302 1.12176 0.966524 
0.046434 1.14156 0.958777 
0.0474116 1.14208 0.958354 
0.0483788 1.14285 0.957875 
0.0493393 1.14376 0.957358 
-0.057648 1.06768 1.00904 
-0.0564436 1.06557 1.00921 
-0.0552837 1.06385 1.0093 
-0.0541626 1.06247 1.00932 
-0.0530658 1.06131 1.00929 
-0.0519955 1.06038 1.00921 
-0.0509626 1.05979 1.00905 
-0.0499347 1.05924 1.00889 
-0.0489061 1.05868 1.00873 
-0.047886 1.0582 1.00855 
-0.0468772 1.05781 1.00835 
-0.0458785 1.05752 1.00814 
-0.0448982 1.05739 1.00788 
-0.0439369 1.05743 1.00759 
-0.0429942 1.05763 1.00727 
-0.0420589 1.0579 1.00693 
-0.0410941 1.0579 1.00664 
-0.0401184 1.05781 1.00638 
-0.039163 1.05791 1.00608 
-0.038245 1.05833 1.00571 
-0.021986 1.08108 0.995309 
-0.0209542 1.08049 0.995153 
-0.0199204 1.07989 0.995002 
-0.0189072 1.07947 0.994812 
-0.0179198 1.07927 0.994572 
-0.0169388 1.07921 0.994297 
-0.0159488 1.07907 0.99404 
-0.0149372 1.07869 0.993839 
-0.0139162 1.0782 0.993662 
-0.0128872 1.07763 0.993506 
-0.0118549 1.07702 0.993357 
-0.010836 1.07655 0.993175 
-0.00981173 1.07603 0.993007 
-0.00874126 1.075 0.992956 
-0.00747795 1.07232 0.993258 
-0.0064041 1.07136 0.993183 
-0.00533485 1.07044 0.993099 
-0.00429093 1.06975 0.992967 
-0.00326851 1.06924 0.992794 
-0.00225751 1.06884 0.992599 
-0.00127898 1.06873 0.992343 
-0.000317942 1.06877 0.992052 
0.000647807 1.06876 0.991771 
0.00161066 1.06879 0.991484 
0.00255191 1.069 0.991156 
0.00348657 1.06943 0.990771 
0.00442591 1.06984 0.990385 
0.0053737 1.07017 0.99002 
0.00630107 1.07072 0.989603 
0.00720672 1.0715 0.98913 
0.00807595 1.0727 0.988563 
0.0287187 1.11978 0.970339 
0.029673 1.1203 0.969924 
0.0306497 1.12049 0.969589 
0.0316372 1.12052 0.969292 
0.0326323 1.12043 0.969021 
0.0336156 1.12052 0.968709 
0.0345889 1.12076 0.968361 
0.0355561 1.12109 0.967991 
0.0365191 1.12149 0.967607 
0.0374779 1.12195 0.967208 
0.0470946 1.14224 0.959215 
0.0480682 1.14286 0.95877 
0.0490369 1.14359 0.958298 
0.0500005 1.14444 0.957798 
-0.0568996 1.06692 1.00974 
-0.055702 1.06487 1.0099 
-0.0545632 1.06333 1.00995 
-0.0534411 1.06195 1.00996 
-0.0523478 1.06081 1.00993 
-0.0512946 1.06004 1.00981 
-0.0502688 1.05951 1.00964 
-0.0492403 1.05895 1.00948 
-0.0482119 1.05839 1.00932 
-0.0471905 1.0579 1.00915 
-0.0461811 1.05751 1.00895 
-0.0451907 1.05729 1.00872 
-0.0442194 1.05724 1.00844 
-0.0432714 1.0574 1.00813 
-0.0423365 1.05767 1.00779 
-0.0413937 1.05787 1.00746 
-0.0404237 1.05783 1.00719 
-0.0394555 1.05781 1.00692 
-0.0385195 1.05807 1.00658 
-0.0376201 1.05866 1.00617 
-0.0208067 1.08082 0.995776 
-0.0197552 1.08006 0.995659 
-0.018733 1.07956 0.995486 
-0.0177386 1.0793 0.995259 
-0.0167577 1.07922 0.99499 
-0.015769 1.0791 0.99473 
-0.0147617 1.07876 0.994518 
-0.0137422 1.07829 0.994337 
-0.0127181 1.07777 0.994168 
-0.0116887 1.07719 0.994013 
-0.0106693 1.07672 0.993832 
-0.00964881 1.07624 0.993654 
-0.00860925 1.07555 0.993524 
-0.00737427 1.07303 0.993796 
-0.0062866 1.07195 0.993748 
-0.00521686 1.07103 0.993665 
-0.00417251 1.07033 0.993534 
-0.00314331 1.06976 0.993374 
-0.00213032 1.06935 0.993183 
-0.00114503 1.06917 0.992939 
-0.000175085 1.06913 0.992666 
0.000792449 1.06912 0.992388 
0.00175873 1.06911 0.992108 
0.00270313 1.0693 0.991786 
0.00364302 1.06971 0.991401 
0.00458888 1.07006 0.991032 
0.00553924 1.07035 0.990673 
0.00646463 1.07092 0.990251 
0.00736949 1.07172 0.989777 
0.00825324 1.07276 0.989247 
0.0289189 1.11959 0.971109 
0.029869 1.12018 0.970679 
0.0308343 1.12054 0.970303 
0.0318158 1.12066 0.969985 
0.0328058 1.12065 0.969696 
0.033788 1.12076 0.96938 
0.034764 1.12096 0.969042 
0.0357296 1.12132 0.968667 
0.0366927 1.12171 0.968283 
0.0376541 1.12214 0.967894 
0.0472625 1.14275 0.959841 
0.0482357 1.14338 0.959394 
0.0492084 1.14402 0.958944 
0.0501715 1.14489 0.958441 
-0.0567397 1.0671 1.01037 
-0.0555558 1.06516 1.01051 
-0.0543998 1.06347 1.01059 
-0.0532649 1.06197 1.01063 
-0.05217 1.06083 1.01059 
-0.0511162 1.06004 1.01048 
-0.0500869 1.05948 1.01032 
-0.0490603 1.05894 1.01016 
-0.04803 1.05837 1.01 
-0.0470061 1.05785 1.00983 
-0.0459946 1.05744 1.00963 
-0.0449991 1.05718 1.00941 
-0.0440313 1.05716 1.00913 
-0.043077 1.05726 1.00883 
-0.0421394 1.05751 1.00849 
-0.0411988 1.05774 1.00817 
-0.0402386 1.05779 1.00787 
-0.0392711 1.05777 1.0076 
-0.038338 1.05806 1.00725 
-0.0206078 1.08069 0.996498 
-0.0195674 1.08003 0.996359 
-0.0185435 1.07951 0.996189 
-0.0175407 1.07918 0.995978 
-0.0165642 1.0791 0.995715 
-0.0155783 1.079 0.995449 
-0.0145751 1.07871 0.995226 
-0.0135597 1.07828 0.995035 
-0.0125397 1.07781 0.994855 
-0.0115171 1.07731 0.994682 
-0.0104969 1.07683 0.994503 
-0.0094767 1.07635 0.994324 
-0.00844778 1.07578 0.994168 
-0.00739392 1.07493 0.994075 
-0.00618581 1.07269 0.994281 
-0.00510291 1.07165 0.994223 
-0.00405284 1.0709 0.994103 
-0.00301782 1.07028 0.993954 
-0.00199847 1.06981 0.993775 
-0.00100403 1.06955 0.993549 
-2.54288e-05 1.06944 0.993292 
0.000945762 1.06939 0.993022 
0.0019074 1.06943 0.992733 
0.00285703 1.06961 0.99241 
0.00380517 1.06993 0.992046 
0.00475238 1.07026 0.99168 
0.0056993 1.0706 0.991313 
0.00662457 1.07117 0.990891 
0.00752682 1.072 0.990409 
0.00842254 1.0729 0.989911 
0.029118 1.11941 0.971874 
0.0300659 1.12004 0.971437 
0.0310195 1.12058 0.971019 
0.0319921 1.12084 0.97067 
0.032976 1.12092 0.970359 
0.0339602 1.121 0.970051 
0.0349368 1.12119 0.969714 
0.0359014 1.12157 0.969336 
0.0368661 1.12194 0.968958 
0.037827 1.12238 0.968567 
0.0479159 1.1436 0.960238 
0.0488905 1.14421 0.959798 
0.0498589 1.14496 0.959324 
0.0508095 1.14612 0.958751 
-0.0560339 1.06672 1.01099 
-0.0548268 1.06457 1.01116 
-0.0536595 1.06278 1.01127 
-0.0525396 1.06141 1.01128 
-0.0514633 1.06043 1.01121 
-0.0504209 1.05975 1.01107 
-0.0493872 1.05915 1.01092 
-0.048361 1.05861 1.01076 
-0.0473353 1.05808 1.01059 
-0.0463157 1.0576 1.01041 
-0.0453137 1.05728 1.0102 
-0.0443316 1.05713 1.00995 
-0.0433667 1.05714 1.00967 
-0.0424064 1.05719 1.00938 
-0.0414565 1.05733 1.00906 
-0.0405226 1.05761 1.00872 
-0.0395602 1.05764 1.00844 
-0.0386134 1.05781 1.00812 
-0.0377082 1.05835 1.00772 
-0.0198655 1.08002 0.997193 
-0.0188415 1.07951 0.997023 
-0.0178226 1.07904 0.996843 
-0.0168251 1.07875 0.996623 
-0.0158494 1.07867 0.996361 
-0.0148765 1.07865 0.99608 
-0.0138763 1.07839 0.99585 
-0.0128635 1.078 0.995652 
-0.0118461 1.07755 0.995465 
-0.0108273 1.07709 0.995283 
-0.00980685 1.07661 0.995104 
-0.00878902 1.07616 0.994919 
-0.00775716 1.07555 0.99477 
-0.00670919 1.07477 0.994662 
-0.00555236 1.07299 0.994769 
-0.00445581 1.07183 0.994737 
-0.00340555 1.07108 0.994617 
-0.00237483 1.0705 0.99446 
-0.00135922 1.07006 0.994274 
-0.000365794 1.06981 0.994046 
0.000607392 1.06975 0.993779 
0.00157743 1.06971 0.993506 
0.00253658 1.06977 0.993213 
0.00349537 1.06997 0.992879 
0.00444761 1.07024 0.992525 
0.0053919 1.07061 0.992152 
0.00632759 1.07107 0.991756 
0.00723504 1.07184 0.991288 
0.00814476 1.07259 0.990825 
0.00904347 1.07346 0.990334 
0.0293208 1.11918 0.972652 
0.0302661 1.11985 0.972205 
0.0312072 1.12058 0.971744 
0.0321671 1.12103 0.97135 
0.0331497 1.12114 0.971035 
0.0341341 1.12121 0.970727 
0.0351095 1.12143 0.970387 
0.0360753 1.12179 0.970013 
0.0370398 1.12217 0.969635 
0.0380048 1.12254 0.969258 
0.0480824 1.14415 0.960857 
0.0490518 1.14488 0.960388 
0.0500195 1.14565 0.959909 
0.0509836 1.14651 0.959411 
-0.0564782 1.06797 1.01153 
-0.0552783 1.06589 1.0117 
-0.0540659 1.06369 1.01188 
-0.0529297 1.06218 1.01193 
-0.0518285 1.06097 1.0119 
-0.0507573 1.06004 1.01182 
-0.0497189 1.05939 1.01168 
-0.0486923 1.05885 1.01151 
-0.047668 1.05833 1.01134 
-0.0466465 1.05784 1.01117 
-0.0456306 1.05739 1.01098 
-0.0446403 1.05718 1.01075 
-0.0436691 1.05713 1.01048 
-0.0426934 1.05704 1.01022 
-0.041727 1.05704 1.00994 
-0.0407817 1.05722 1.00962 
-0.0398458 1.05749 1.00928 
-0.0388961 1.05763 1.00897 
-0.0379772 1.05805 1.0086 
-0.0371809 1.05956 1.008 
-0.0362747 1.06009 1.00761 
-0.019664 1.07987 0.997918 
-0.0186241 1.07921 0.997778 
-0.0176068 1.07876 0.997596 
-0.0166058 1.07844 0.997382 
-0.0156179 1.07825 0.997143 
-0.0146607 1.07832 0.996847 
-0.0136828 1.07827 0.996575 
-0.012675 1.07793 0.996364 
-0.0116609 1.07752 0.99617 
-0.0106421 1.07706 0.995987 
-0.00962299 1.07659 0.995805 
-0.00860096 1.07609 0.99563 
-0.00757813 1.07558 0.995458 
-0.00654738 1.07499 0.995306 
-0.00547362 1.07393 0.995262 
-0.0043743 1.07274 0.995235 
-0.00328645 1.07166 0.995186 
-0.00224539 1.07099 0.995048 
-0.00122327 1.07049 0.994875 
-0.000226716 1.07021 0.994653 
0.000751864 1.0701 0.994396 
0.00172604 1.07003 0.994132 
0.0026931 1.07004 0.993846 
0.00365818 1.07018 0.993525 
0.00461627 1.07039 0.993187 
0.00555678 1.0708 0.992804 
0.00648945 1.07129 0.9924 
0.00740126 1.07202 0.991943 
0.00831196 1.07276 0.991483 
0.012864 1.0819 0.987782 
0.0290589 1.11848 0.97368 
0.0299931 1.11932 0.973196 
0.0309307 1.12012 0.972722 
0.0318659 1.12094 0.972241 
0.032831 1.12132 0.971864 
0.0338163 1.12138 0.971559 
0.034796 1.12153 0.971235 
0.035768 1.1218 0.970883 
0.0367295 1.12223 0.970494 
0.0376999 1.12252 0.970137 
0.04825 1.14468 0.961481 
0.0492176 1.14546 0.961002 
0.0501919 1.14608 0.960559 
0.0511592 1.14686 0.960079 
0.0521263 1.14765 0.959596 
-0.0557774 1.06763 1.01214 
-0.0545021 1.06488 1.01244 
-0.0533344 1.06308 1.01254 
-0.0522145 1.06171 1.01256 
-0.0511142 1.06051 1.01253 
-0.050056 1.05969 1.01243 
-0.0490239 1.0591 1.01227 
-0.0480003 1.05859 1.0121 
-0.0469745 1.05805 1.01193 
-0.045957 1.05759 1.01175 
-0.0449535 1.05726 1.01154 
-0.0439697 1.0571 1.0113 
-0.0429916 1.05699 1.01104 
-0.0420151 1.0569 1.01078 
-0.0410541 1.05694 1.01049 
-0.040117 1.0572 1.01016 
-0.0391821 1.05747 1.00982 
-0.0382418 1.0577 1.00949 
-0.037394 1.05876 1.00898 
-0.0365521 1.05986 1.00847 
-0.0199944 1.08015 0.998691 
-0.0189444 1.07941 0.99857 
-0.0179164 1.07885 0.998408 
-0.0169004 1.07841 0.998222 
-0.015905 1.07815 0.997998 
-0.0149307 1.07807 0.997734 
-0.013977 1.07818 0.997431 
-0.012989 1.07801 0.997186 
-0.0119771 1.07762 0.996986 
-0.0109672 1.07726 0.99678 
-0.0099466 1.07678 0.996602 
-0.00892362 1.07627 0.99643 
-0.00789904 1.07574 0.996262 
-0.00687698 1.07524 0.996088 
-0.00585247 1.07472 0.99592 
-0.00479956 1.07388 0.995825 
-0.00373217 1.07296 0.99574 
-0.00265707 1.07199 0.995667 
-0.00161431 1.07131 0.995532 
-0.000599906 1.07088 0.995344 
0.000398317 1.07059 0.995125 
0.00138213 1.07043 0.994879 
0.00235961 1.07034 0.994617 
0.003335 1.07036 0.994323 
0.00429659 1.07053 0.993994 
0.00524656 1.07084 0.993635 
0.00618499 1.07127 0.993246 
0.00710547 1.0719 0.992811 
0.0080202 1.0726 0.992361 
0.00892951 1.07336 0.991898 
0.013043 1.08196 0.98847 
0.0292536 1.11837 0.97443 
0.0301848 1.11926 0.973934 
0.0311272 1.11998 0.973478 
0.0320513 1.12098 0.972957 
0.0330075 1.12149 0.97255 
0.0339891 1.12161 0.972232 
0.0349686 1.12177 0.971907 
0.0359384 1.12207 0.971548 
0.0369054 1.12242 0.971179 
0.0378779 1.12268 0.970828 
0.0489026 1.14557 0.961872 
0.0498755 1.14623 0.961422 
0.0508494 1.14687 0.960977 
0.0518254 1.14746 0.960544 
-0.0555934 1.06759 1.01282 
-0.0543593 1.0652 1.01304 
-0.0531919 1.06341 1.01315 
-0.0520537 1.06187 1.01319 
-0.0509411 1.06056 1.01319 
-0.0498753 1.05967 1.0131 
-0.0488459 1.05911 1.01294 
-0.0478198 1.05857 1.01277 
-0.0467968 1.05806 1.0126 
-0.0457752 1.05757 1.01243 
-0.0447703 1.05722 1.01222 
-0.0437805 1.05701 1.01199 
-0.0428038 1.05691 1.01173 
-0.0418228 1.05678 1.01147 
-0.0408574 1.05678 1.01119 
-0.0399201 1.05704 1.01086 
-0.0389912 1.05737 1.01051 
-0.0380567 1.05765 1.01017 
-0.0371842 1.05849 1.00971 
-0.0363632 1.05978 1.00916 
-0.0354625 1.06036 1.00876 
-0.0192763 1.0797 0.99934 
-0.0182236 1.07893 0.999224 
-0.0172058 1.07847 0.999042 
-0.0162045 1.07815 0.998829 
-0.0152173 1.07796 0.998589 
-0.0142509 1.07796 0.998311 
-0.013288 1.07799 0.998025 
-0.0122939 1.07774 0.997798 
-0.0112837 1.07737 0.997595 
-0.0102635 1.07689 0.997416 
-0.00924372 1.07642 0.997236 
-0.0082203 1.0759 0.997065 
-0.00719728 1.07539 0.996893 
-0.00617676 1.07491 0.996715 
-0.00515421 1.07441 0.996542 
-0.00412219 1.0738 0.996394 
-0.00307507 1.07306 0.996273 
-0.00202387 1.0723 0.996155 
-0.000988128 1.07168 0.996007 
1.85408e-05 1.07131 0.995804 
0.00102379 1.07096 0.995599 
0.00201537 1.07075 0.995362 
0.00299568 1.07072 0.99508 
0.00396696 1.07079 0.994775 
0.00492333 1.07102 0.994433 
0.00587365 1.07133 0.994074 
0.00680189 1.07187 0.993659 
0.00772514 1.07248 0.993232 
0.00863927 1.07318 0.992781 
0.0123301 1.08106 0.989666 
0.0132234 1.082 0.989161 
0.0289781 1.11787 0.97541 
0.0299063 1.11881 0.974904 
0.0308464 1.11957 0.97444 
0.0317816 1.12041 0.973959 
0.0327054 1.12142 0.973438 
0.0336707 1.12179 0.973063 
0.0346512 1.12193 0.972741 
0.0356254 1.12217 0.972397 
0.0365952 1.12248 0.972038 
0.0375674 1.12275 0.971687 
0.0385374 1.12305 0.971328 
0.0495569 1.14644 0.962272 
0.0505352 1.14697 0.961851 
0.0515173 1.14742 0.961451 
0.0524854 1.1482 0.960974 
-0.054821 1.06661 1.01356 
-0.05364 1.0647 1.01368 
-0.0524781 1.06295 1.01377 
-0.0513269 1.06129 1.01384 
-0.0502311 1.06013 1.01381 
-0.0491834 1.05941 1.01368 
-0.0481538 1.05884 1.01353 
-0.0471302 1.05832 1.01335 
-0.0461074 1.05782 1.01318 
-0.0450882 1.05734 1.013 
-0.0440864 1.05702 1.01279 
-0.043101 1.05685 1.01255 
-0.0421163 1.05669 1.0123 
-0.0411455 1.05665 1.01203 
-0.0401953 1.05679 1.01172 
-0.0392613 1.05707 1.01138 
-0.0383345 1.05742 1.01103 
-0.0374193 1.05788 1.01065 
-0.0365344 1.0586 1.01022 
-0.0356995 1.05978 1.0097 
-0.0195779 1.07973 1.00017 
-0.0185256 1.07896 1.00005 
-0.0174906 1.07834 0.999901 
-0.0164939 1.07807 0.999679 
-0.0155114 1.07792 0.99943 
-0.0145387 1.07786 0.999164 
-0.0135741 1.07787 0.998881 
-0.012595 1.07776 0.998626 
-0.0115978 1.07748 0.998406 
-0.0105803 1.07702 0.998224 
-0.00956332 1.07657 0.99804 
-0.00854475 1.0761 0.99786 
-0.00751469 1.07553 0.997701 
-0.0064934 1.07503 0.997526 
-0.00547626 1.07458 0.997343 
-0.00445736 1.07412 0.997161 
-0.00343652 1.07363 0.996983 
-0.00241166 1.0731 0.996816 
-0.0013873 1.07258 0.996648 
-0.000358727 1.07201 0.996489 
0.000647649 1.07169 0.996276 
0.00165445 1.07136 0.996063 
0.00265026 1.07115 0.995821 
0.0036271 1.07116 0.995531 
0.0045932 1.07129 0.995213 
0.00555041 1.07151 0.994872 
0.00649134 1.07192 0.99449 
0.00742051 1.07246 0.994077 
0.00834609 1.07303 0.993656 
0.0112329 1.07899 0.991274 
0.0121068 1.08015 0.99072 
0.0129621 1.08151 0.990118 
0.0287088 1.11728 0.976412 
0.0296345 1.11826 0.975898 
0.0305596 1.11926 0.975381 
0.0314988 1.12003 0.974914 
0.0324292 1.12094 0.974416 
0.0333583 1.12188 0.973914 
0.0343328 1.12211 0.973571 
0.0353093 1.12231 0.973236 
0.0362839 1.12255 0.972893 
0.0372535 1.12286 0.972534 
0.0382307 1.12305 0.9722 
0.0497259 1.14695 0.962903 
0.0507057 1.14745 0.96249 
0.0516915 1.14782 0.962111 
0.0526576 1.14865 0.961622 
0.0536077 1.14985 0.961044 
-0.054666 1.06683 1.01418 
-0.0535329 1.06534 1.01422 
-0.0523271 1.0632 1.01439 
-0.0511654 1.06145 1.01448 
-0.0500662 1.06026 1.01445 
-0.0490116 1.05947 1.01434 
-0.0479779 1.05887 1.01419 
-0.0469574 1.05838 1.01401 
-0.0459305 1.05784 1.01385 
-0.0449115 1.05736 1.01367 
-0.0439062 1.05701 1.01346 
-0.0429088 1.05674 1.01324 
-0.0419227 1.05656 1.013 
-0.0409531 1.05653 1.01273 
-0.0400046 1.05668 1.01242 
-0.0390726 1.05699 1.01207 
-0.0381532 1.05741 1.0117 
-0.0372239 1.05774 1.01136 
-0.0363188 1.05828 1.01096 
-0.0354379 1.05905 1.01052 
-0.0192444 1.07839 1.00114 
-0.0182417 1.07806 1.00093 
-0.0172139 1.07751 1.00077 
-0.0162505 1.07754 1.00048 
-0.015309 1.07776 1.00016 
-0.0143463 1.07779 0.999871 
-0.0133769 1.07776 0.999598 
-0.0123952 1.07762 0.999348 
-0.0114028 1.07739 0.999119 
-0.0103842 1.07692 0.998939 
-0.00937227 1.07651 0.998746 
-0.00835077 1.07601 0.998571 
-0.00731998 1.07544 0.998414 
-0.00629245 1.07489 0.998251 
-0.00527808 1.07446 0.998062 
-0.00426521 1.07404 0.997871 
-0.00325773 1.07367 0.99767 
-0.00224552 1.07328 0.997472 
-0.00123483 1.07291 0.997268 
-0.000222305 1.07251 0.997069 
0.000781979 1.07222 0.99685 
0.00178449 1.07194 0.996625 
0.00278414 1.07169 0.996394 
0.00376889 1.07161 0.996124 
0.0047368 1.07171 0.995811 
0.00569593 1.07192 0.995475 
0.00663752 1.07232 0.995094 
0.00757539 1.07276 0.994704 
0.00850762 1.07327 0.994299 
0.0105295 1.07798 0.992495 
0.0114216 1.07893 0.991987 
0.0122932 1.08012 0.991427 
0.013152 1.08144 0.990834 
0.0289121 1.11702 0.977191 
0.0298331 1.11808 0.97666 
0.0307473 1.11925 0.976106 
0.0316811 1.12011 0.97562 
0.0326107 1.12104 0.975119 
0.0335303 1.12212 0.974584 
0.0345016 1.1224 0.97423 
0.0354804 1.12258 0.973903 
0.0364552 1.12281 0.973562 
0.037425 1.12312 0.973202 
0.0384055 1.12326 0.972881 
0.0498948 1.14746 0.963533 
0.0508787 1.14788 0.963142 
0.0518649 1.14824 0.962765 
0.0528284 1.14913 0.962262 
0.0537839 1.15022 0.961712 
-0.0545392 1.06732 1.01476 
-0.053446 1.06618 1.01472 
-0.052172 1.06343 1.01502 
-0.0510119 1.06169 1.01511 
-0.0499052 1.06043 1.01509 
-0.0488453 1.05959 1.01499 
-0.0478052 1.05893 1.01485 
-0.0467839 1.05844 1.01467 
-0.0457562 1.05789 1.01451 
-0.044738 1.05742 1.01433 
-0.043727 1.05702 1.01414 
-0.0427231 1.05669 1.01393 
-0.0417333 1.05648 1.01369 
-0.0407687 1.05649 1.01341 
-0.0398133 1.05659 1.01311 
-0.0388848 1.05692 1.01276 
-0.0379619 1.05731 1.0124 
-0.0370351 1.05767 1.01205 
-0.036121 1.05813 1.01167 
-0.0352305 1.05881 1.01125 
-0.0195398 1.07837 1.00198 
-0.0185218 1.07791 1.0018 
-0.0174792 1.07722 1.00166 
-0.0164819 1.07694 1.00144 
-0.0155176 1.07696 1.00116 
-0.0146144 1.07753 1.00076 
-0.0136655 1.07768 1.00045 
-0.0126918 1.07761 1.00019 
-0.0116979 1.07737 0.999959 
-0.0106899 1.07699 0.999759 
-0.00967447 1.07655 0.999573 
-0.00865681 1.07609 0.999391 
-0.00763278 1.07557 0.999221 
-0.00660064 1.07498 0.999066 
-0.00557938 1.07449 0.998891 
-0.00455947 1.07401 0.998713 
-0.00356192 1.07373 0.998494 
-0.00256239 1.07343 0.998277 
-0.00156115 1.07314 0.998058 
-0.000562835 1.07291 0.997823 
0.000434194 1.07269 0.997585 
0.00142473 1.07254 0.99733 
0.00240885 1.07247 0.997058 
0.00340075 1.07231 0.996807 
0.00438227 1.07227 0.996528 
0.00535156 1.07236 0.996219 
0.00630631 1.07261 0.995872 
0.00724642 1.07303 0.995488 
0.00818315 1.07349 0.995095 
0.00890228 1.07638 0.994144 
0.00980796 1.07718 0.993672 
0.0107085 1.07804 0.993186 
0.011608 1.07892 0.992698 
0.0124718 1.08019 0.992118 
0.0133414 1.0814 0.991553 
0.0286471 1.11638 0.978214 
0.029573 1.11737 0.9777 
0.030488 1.11852 0.977148 
0.0314026 1.11969 0.976595 
0.0323308 1.12064 0.97609 
0.0332317 1.12201 0.975488 
0.0341833 1.1226 0.975065 
0.0351599 1.12281 0.97473 
0.0361372 1.123 0.974397 
0.0371136 1.12321 0.974062 
0.0380932 1.12337 0.973737 
0.0390647 1.12366 0.973384 
0.0500678 1.14788 0.964185 
0.0510486 1.14837 0.963778 
0.0520264 1.14894 0.963354 
0.0529905 1.14982 0.962852 
0.0539569 1.15065 0.962365 
-0.0538909 1.06746 1.01527 
-0.0526777 1.06525 1.01545 
-0.051431 1.06273 1.0157 
-0.0503071 1.06132 1.01572 
-0.0492083 1.06013 1.01569 
-0.0481514 1.05932 1.01558 
-0.0471215 1.05875 1.01542 
-0.0460954 1.05821 1.01526 
-0.0450799 1.05777 1.01507 
-0.0440603 1.0573 1.01489 
-0.0430474 1.05688 1.0147 
-0.042048 1.05658 1.01448 
-0.041073 1.0565 1.01422 
-0.0401101 1.05653 1.01394 
-0.0391602 1.05668 1.01363 
-0.0382274 1.05698 1.01329 
-0.0373041 1.05737 1.01293 
-0.0363829 1.05777 1.01256 
-0.0354755 1.0583 1.01217 
-0.0345908 1.05903 1.01174 
-0.0193467 1.0783 1.00269 
-0.0183177 1.07774 1.00253 
-0.0172778 1.07708 1.00239 
-0.0162708 1.07671 1.00219 
-0.0152961 1.07664 1.00192 
-0.0143648 1.07695 1.00158 
-0.0134575 1.07748 1.00119 
-0.0124911 1.07748 1.00091 
-0.0114973 1.07723 1.00068 
-0.0104842 1.07682 1.00049 
-0.00946763 1.07636 1.00031 
-0.00844528 1.07586 1.00014 
-0.00741399 1.07528 0.999979 
-0.00638948 1.07476 0.99981 
-0.00536811 1.07426 0.999635 
-0.00435261 1.07382 0.999449 
-0.00335666 1.07356 0.999227 
-0.00236217 1.0733 0.999001 
-0.00137006 1.07307 0.998771 
-0.000383772 1.07295 0.998512 
0.000603748 1.07284 0.998249 
0.00158302 1.07282 0.997965 
0.00255592 1.07288 0.997665 
0.00352725 1.07295 0.997361 
0.00449216 1.07309 0.99704 
0.00544795 1.07333 0.996696 
0.0063894 1.07374 0.996316 
0.00729662 1.07453 0.995848 
0.00819117 1.07546 0.995347 
0.00908427 1.07641 0.994842 
0.00998624 1.07725 0.99436 
0.010887 1.07811 0.993876 
0.0117816 1.07904 0.993375 
0.0126499 1.08027 0.992807 
0.0135184 1.08149 0.99224 
0.0288451 1.11623 0.97898 
0.029778 1.11711 0.978491 
0.0306926 1.11828 0.977938 
0.0316004 1.11955 0.977361 
0.0325116 1.12076 0.976795 
0.033406 1.12224 0.97617 
0.0343525 1.12291 0.97573 
0.0353289 1.12312 0.975394 
0.0363089 1.12328 0.975071 
0.0372902 1.12341 0.974752 
0.0382712 1.12355 0.974433 
0.0392289 1.12405 0.974031 
0.0401446 1.1252 0.973482 
0.0512156 1.14894 0.964396 
0.0521945 1.14948 0.963978 
0.053161 1.15032 0.96349 
0.0541323 1.15104 0.963029 
-0.0537524 1.06784 1.01586 
-0.0525234 1.06549 1.01608 
-0.0512897 1.06309 1.0163 
-0.0501546 1.06157 1.01634 
-0.049046 1.06029 1.01633 
-0.0479841 1.05944 1.01623 
-0.046949 1.05882 1.01608 
-0.0459228 1.05828 1.01592 
-0.0449065 1.05783 1.01573 
-0.0438886 1.05737 1.01555 
-0.0428764 1.05696 1.01536 
-0.0418758 1.05665 1.01514 
-0.0408991 1.05656 1.01488 
-0.0399325 1.05656 1.01461 
-0.0389743 1.05663 1.01431 
-0.0380292 1.05682 1.014 
-0.0370983 1.05714 1.01365 
-0.0361791 1.05757 1.01328 
-0.035271 1.05809 1.0129 
-0.0343955 1.0589 1.01245 
-0.0335271 1.05978 1.01198 
-0.0186402 1.07796 1.00331 
-0.0175886 1.07719 1.0032 
-0.0165659 1.07669 1.00302 
-0.0155738 1.07646 1.00279 
-0.0146078 1.07646 1.00252 
-0.0136769 1.07678 1.00217 
-0.0127691 1.07731 1.00178 
-0.0117909 1.0772 1.00153 
-0.0107842 1.07684 1.00132 
-0.00976298 1.07635 1.00115 
-0.00873671 1.07581 1.00098 
-0.00770341 1.07521 1.00083 
-0.00667993 1.07469 1.00066 
-0.00565383 1.07416 1.00049 
-0.00464323 1.07376 1.0003 
-0.00364673 1.07349 1.00008 
-0.00265004 1.07322 0.999855 
-0.00166282 1.07303 0.999615 
-0.000679601 1.07288 0.999369 
0.000299359 1.07283 0.999095 
0.00127293 1.07288 0.998797 
0.00224405 1.07295 0.998492 
0.00320533 1.07313 0.998163 
0.00415939 1.0734 0.997814 
0.00511354 1.07366 0.997467 
0.0060565 1.07405 0.99709 
0.00698596 1.07459 0.996679 
0.00790516 1.07525 0.996242 
0.00881373 1.07603 0.995777 
0.00971634 1.07687 0.995297 
0.0106152 1.07775 0.994808 
0.011508 1.0787 0.994303 
0.0123955 1.07972 0.993785 
0.0132547 1.08104 0.993194 
0.0285747 1.11566 0.979984 
0.0295116 1.11649 0.979509 
0.0304411 1.11742 0.979008 
0.0313508 1.11867 0.978438 
0.0322579 1.11995 0.977858 
0.034044 1.12296 0.976599 
0.0350093 1.12334 0.976224 
0.0359902 1.12348 0.975904 
0.0369745 1.12357 0.975596 
0.0379573 1.12369 0.975283 
0.0389356 1.12387 0.974954 
0.0398618 1.12486 0.974441 
0.0508981 1.14912 0.965252 
0.0518717 1.14979 0.964804 
0.0528482 1.15039 0.964372 
0.0538194 1.15112 0.96391 
0.0547862 1.15195 0.963424 
-0.0523745 1.06577 1.0167 
-0.0511665 1.0636 1.01687 
-0.0500044 1.06184 1.01696 
-0.0488864 1.06048 1.01697 
-0.0478175 1.05956 1.01688 
-0.046778 1.0589 1.01674 
-0.0457509 1.05836 1.01657 
-0.0447311 1.05788 1.0164 
-0.0437154 1.05744 1.01621 
-0.0427041 1.05703 1.01602 
-0.0417004 1.0567 1.01581 
-0.0407217 1.05659 1.01555 
-0.0397579 1.05661 1.01527 
-0.0387876 1.05658 1.015 
-0.0378325 1.05668 1.0147 
-0.0368984 1.05697 1.01436 
-0.0359739 1.05735 1.01401 
-0.0350673 1.05788 1.01362 
-0.0341877 1.05867 1.01318 
-0.0333334 1.05967 1.01269 
-0.0184224 1.07767 1.00407 
-0.0173758 1.07695 1.00394 
-0.0163609 1.07651 1.00375 
-0.0153734 1.07632 1.00352 
-0.0144022 1.07628 1.00325 
-0.0134519 1.07642 1.00294 
-0.0125502 1.07701 1.00254 
-0.0115823 1.07699 1.00226 
-0.010568 1.07656 1.00208 
-0.00954024 1.07601 1.00191 
-0.00851485 1.07548 1.00175 
-0.0074665 1.07475 1.00162 
-0.00644849 1.07428 1.00144 
-0.00542799 1.0738 1.00126 
