-0.0288505 1.11593 0.999674 
-0.0289971 1.11547 1.00028 
-0.0291436 1.11501 1.00089 
-0.0293892 1.11455 1.00158 
-0.0293381 1.11409 1.00202 
-0.029287 1.11364 1.00247 
-0.0292359 1.11318 1.00292 
-0.0291848 1.11273 1.00336 
-0.029035 1.11228 1.00373 
-0.0288851 1.11183 1.0041 
-0.0287351 1.11138 1.00446 
-0.0285853 1.11093 1.00483 
-0.0284353 1.11048 1.0052 
-0.0281866 1.11003 1.00548 
-0.0279379 1.10958 1.00577 
-0.027788 1.10913 1.00613 
-0.0275392 1.10868 1.00642 
-0.0272905 1.10824 1.0067 
-0.0270417 1.10779 1.00699 
-0.0268919 1.10734 1.00736 
-0.0266431 1.10689 1.00764 
-0.0263944 1.10644 1.00793 
-0.0262445 1.10599 1.00829 
-0.0258969 1.10555 1.0085 
-0.0256482 1.1051 1.00878 
-0.0253995 1.10466 1.00907 
-0.0250519 1.10421 1.00928 
-0.0246055 1.10377 1.0094 
-0.0240602 1.10334 1.00945 
-0.0233174 1.10291 1.00933 
-0.022772 1.10247 1.00937 
-0.0222268 1.10203 1.00942 
-0.0215828 1.1016 1.00938 
-0.0210375 1.10117 1.00943 
-0.0205911 1.10073 1.00955 
-0.0200459 1.10029 1.0096 
-0.0195007 1.09985 1.00964 
-0.0190542 1.09941 1.00976 
-0.0184102 1.09898 1.00973 
-0.0176673 1.09855 1.00961 
-0.0172209 1.09811 1.00974 
-0.0165768 1.09768 1.0097 
-0.0160314 1.09724 1.00974 
-0.0154863 1.09681 1.00979 
-0.0148423 1.09637 1.00975 
-0.0140004 1.09595 1.00956 
-0.0133565 1.09551 1.00952 
-0.0277037 1.11722 0.998592 
-0.028147 1.11675 0.999441 
-0.0283927 1.11629 1.00013 
-0.0286382 1.11582 1.00082 
-0.0288838 1.11536 1.0015 
-0.0289316 1.1149 1.00203 
-0.0289795 1.11444 1.00256 
-0.0287307 1.11399 1.00284 
-0.0286798 1.11354 1.00329 
-0.0285299 1.11309 1.00366 
-0.0284788 1.11263 1.0041 
-0.0282301 1.11219 1.00439 
-0.0280802 1.11174 1.00476 
-0.0278314 1.11129 1.00504 
-0.0277805 1.11083 1.00549 
-0.0274328 1.11039 1.00569 
-0.0271841 1.10994 1.00598 
-0.0270342 1.10949 1.00634 
-0.0267856 1.10905 1.00663 
-0.0266357 1.1086 1.007 
-0.0264858 1.10815 1.00736 
-0.0262371 1.1077 1.00765 
-0.0260872 1.10725 1.00802 
-0.0257396 1.1068 1.00822 
-0.0254908 1.10636 1.00851 
-0.025341 1.10591 1.00887 
-0.0249933 1.10546 1.00908 
-0.0247446 1.10502 1.00936 
-0.0241993 1.10458 1.00941 
-0.023654 1.10414 1.00945 
-0.0230098 1.10371 1.00942 
-0.0224646 1.10327 1.00946 
-0.0220179 1.10283 1.00959 
-0.0214727 1.1024 1.00963 
-0.0208284 1.10197 1.00959 
-0.020382 1.10153 1.00972 
-0.0199355 1.10109 1.00984 
-0.0194892 1.10065 1.00997 
-0.0188449 1.10021 1.00993 
-0.0183986 1.09977 1.01006 
-0.0177543 1.09934 1.01002 
-0.0173079 1.0989 1.01015 
-0.0166636 1.09847 1.01011 
-0.0161184 1.09803 1.01016 
-0.0155729 1.0976 1.0102 
-0.0151266 1.09716 1.01033 
-0.0141858 1.09673 1.01005 
-0.0134428 1.09631 1.00993 
-0.0270477 1.11759 0.998887 
-0.0274911 1.11711 0.999736 
-0.0278358 1.11664 1.0005 
-0.0281803 1.11617 1.00127 
-0.0283272 1.11571 1.00188 
-0.0283752 1.11525 1.00241 
-0.0283243 1.1148 1.00285 
-0.0281743 1.11435 1.00322 
-0.0281234 1.1139 1.00366 
-0.0278747 1.11345 1.00395 
-0.0276259 1.113 1.00424 
-0.0273772 1.11255 1.00452 
-0.0271285 1.11211 1.00481 
-0.0270775 1.11165 1.00525 
-0.0269278 1.1112 1.00562 
-0.02658 1.11076 1.00583 
-0.0266279 1.1103 1.00635 
-0.0263793 1.10985 1.00664 
-0.0262294 1.1094 1.007 
-0.0260796 1.10895 1.00737 
-0.0259297 1.1085 1.00774 
-0.025681 1.10805 1.00802 
-0.02563 1.1076 1.00847 
-0.0251834 1.10716 1.00859 
-0.0250337 1.10671 1.00896 
-0.024785 1.10626 1.00925 
-0.0244373 1.10582 1.00945 
-0.0239907 1.10538 1.00958 
-0.0235443 1.10494 1.0097 
-0.0229 1.10451 1.00967 
-0.0225523 1.10406 1.00987 
-0.022007 1.10363 1.00992 
-0.0214616 1.10319 1.00996 
-0.0209161 1.10276 1.01 
-0.0198761 1.10234 1.00965 
-0.0195286 1.10189 1.00985 
-0.0190822 1.10145 1.00998 
-0.0186355 1.10101 1.0101 
-0.0183867 1.10057 1.01039 
-0.0176436 1.10014 1.01027 
-0.0169993 1.09971 1.01024 
-0.0165528 1.09927 1.01036 
-0.0161063 1.09883 1.01049 
-0.0156598 1.09839 1.01061 
-0.0149166 1.09796 1.0105 
-0.0142723 1.09753 1.01046 
-0.0132323 1.09711 1.0101 
-0.0258715 1.11774 0.999005 
-0.0267108 1.11725 1.00017 
-0.0261652 1.11681 1.00022 
-0.0274993 1.11631 1.00179 
-0.0275473 1.11585 1.00232 
-0.0276943 1.11539 1.00292 
-0.0274455 1.11494 1.00321 
-0.0272957 1.11449 1.00357 
-0.0270469 1.11404 1.00386 
-0.0268971 1.11359 1.00423 
-0.0266485 1.11315 1.00451 
-0.0265974 1.11269 1.00496 
-0.0264476 1.11224 1.00532 
-0.0261989 1.11179 1.00561 
-0.0259503 1.11135 1.0059 
-0.0260971 1.11088 1.0065 
-0.0258484 1.11044 1.00679 
-0.0255997 1.10999 1.00707 
-0.0255488 1.10954 1.00752 
-0.0253991 1.10908 1.00789 
-0.0252492 1.10863 1.00825 
-0.0250993 1.10818 1.00862 
-0.0246528 1.10774 1.00874 
-0.024503 1.10729 1.00911 
-0.0243532 1.10684 1.00948 
-0.0240054 1.1064 1.00968 
-0.0235589 1.10596 1.00981 
-0.0230135 1.10552 1.00985 
-0.0226657 1.10508 1.01006 
-0.0221203 1.10464 1.0101 
-0.0216736 1.1042 1.01023 
-0.0211282 1.10377 1.01027 
-0.020187 1.10335 1.01 
-0.0194436 1.10292 1.00988 
-0.0189971 1.10248 1.01001 
-0.0184515 1.10204 1.01005 
-0.0180049 1.1016 1.01018 
-0.0173605 1.10117 1.01014 
-0.0170129 1.10073 1.01035 
-0.0164674 1.10029 1.01039 
-0.0160209 1.09985 1.01052 
-0.0155743 1.09941 1.01064 
-0.0149298 1.09898 1.01061 
-0.0138898 1.09856 1.01025 
-0.0129486 1.09814 1.00997 
-0.0250141 1.1172 1.00011 
-0.025755 1.11671 1.0012 
-0.0261 1.11624 1.00197 
-0.0262469 1.11578 1.00257 
-0.0260973 1.11533 1.00294 
-0.0259474 1.11488 1.00331 
-0.0260945 1.11442 1.00391 
-0.0259447 1.11396 1.00428 
-0.0259928 1.11351 1.00481 
-0.0257441 1.11306 1.00509 
-0.0255943 1.11261 1.00546 
-0.0254445 1.11216 1.00582 
-0.0252948 1.11171 1.00619 
-0.0251449 1.11126 1.00656 
-0.0249952 1.1108 1.00692 
-0.0248454 1.11035 1.00729 
-0.0246955 1.1099 1.00765 
-0.0246447 1.10945 1.0081 
-0.024396 1.109 1.00839 
-0.0241473 1.10855 1.00867 
-0.0239974 1.1081 1.00904 
-0.0236498 1.10766 1.00924 
-0.023401 1.10721 1.00953 
-0.0230533 1.10677 1.00973 
-0.0226067 1.10633 1.00986 
-0.022358 1.10588 1.01015 
-0.0217135 1.10545 1.01011 
-0.0213657 1.10501 1.01032 
-0.0209191 1.10457 1.01044 
-0.019681 1.10416 1.00992 
-0.0192342 1.10372 1.01005 
-0.0186888 1.10328 1.01009 
-0.018242 1.10284 1.01022 
-0.016608 1.10245 1.00938 
-0.0163593 1.102 1.00967 
-0.0162096 1.10155 1.01003 
-0.0157629 1.10111 1.01016 
-0.0151182 1.10068 1.01012 
-0.0147707 1.10024 1.01033 
-0.0139283 1.09981 1.01013 
-0.024383 1.11779 1.00019 
-0.0246291 1.11732 1.00087 
-0.0246774 1.11686 1.0014 
-0.0247256 1.1164 1.00193 
-0.0248727 1.11594 1.00253 
-0.0251189 1.11547 1.00322 
-0.025266 1.11501 1.00382 
-0.0251163 1.11456 1.00419 
-0.0249666 1.11411 1.00456 
-0.0248168 1.11366 1.00492 
-0.024766 1.1132 1.00537 
-0.0244183 1.11276 1.00557 
-0.0243675 1.11231 1.00602 
-0.0244157 1.11185 1.00655 
-0.024068 1.1114 1.00675 
-0.0240172 1.11095 1.0072 
-0.0232737 1.11052 1.00708 
-0.0232227 1.11007 1.00753 
-0.0225781 1.10964 1.00749 
-0.0229233 1.10917 1.00826 
-0.0226745 1.10872 1.00855 
-0.0223269 1.10828 1.00875 
-0.0216822 1.10784 1.00872 
-0.0218295 1.10738 1.00932 
-0.0216797 1.10693 1.00969 
-0.0213319 1.10649 1.0099 
-0.0208851 1.10605 1.01002 
-0.0207355 1.1056 1.01039 
-0.0201898 1.10516 1.01043 
-0.0191492 1.10474 1.01008 
-0.0189005 1.1043 1.01036 
-0.0182559 1.10387 1.01033 
-0.0173143 1.10345 1.01005 
-0.0161747 1.10303 1.00962 
-0.016025 1.10258 1.00998 
-0.0153804 1.10215 1.00995 
-0.0151316 1.1017 1.01023 
-0.0143879 1.10127 1.01012 
-0.0141393 1.10083 1.0104 
-0.0240462 1.11745 1.00147 
-0.0239954 1.117 1.00192 
-0.023993 1.11608 1.00289 
-0.0235209 1.11542 1.00324 
-0.0237671 1.11495 1.00392 
-0.0233204 1.11451 1.00405 
-0.0234677 1.11405 1.00466 
-0.022724 1.11362 1.00454 
-0.0224752 1.11317 1.00483 
-0.0224245 1.11272 1.00527 
-0.0221758 1.11227 1.00556 
-0.021927 1.11182 1.00585 
-0.0214803 1.11138 1.00597 
-0.0213306 1.11093 1.00634 
-0.0207849 1.1105 1.00638 
-0.020437 1.11005 1.00659 
-0.0202873 1.1096 1.00695 
-0.0205336 1.10914 1.00764 
-0.0198887 1.10871 1.0076 
-0.0196402 1.10826 1.00789 
-0.0195893 1.1078 1.00834 
-0.0193407 1.10736 1.00862 
-0.019587 1.10689 1.00931 
-0.0198332 1.10642 1.01 
-0.0194855 1.10598 1.0102 
-0.0185437 1.10556 1.00993 
-0.018394 1.10511 1.01029 
-0.0174523 1.10469 1.01002 
-0.0168075 1.10426 1.00998 
-0.0160636 1.10383 1.00987 
-0.0156168 1.10339 1.00999 
-0.0146752 1.10297 1.00972 
-0.0216781 1.11674 1.0016 
-0.0220237 1.11627 1.00237 
-0.022072 1.11581 1.00289 
-0.0222194 1.11535 1.0035 
-0.0220696 1.1149 1.00387 
-0.0221181 1.11444 1.00439 
-0.0221664 1.11398 1.00492 
-0.0220167 1.11353 1.00528 
-0.0219661 1.11307 1.00573 
-0.0217173 1.11263 1.00602 
-0.0216666 1.11217 1.00646 
-0.0213189 1.11173 1.00667 
-0.0211693 1.11128 1.00703 
-0.0209205 1.11083 1.00732 
-0.0206717 1.11038 1.0076 
-0.0203239 1.10994 1.00781 
-0.0201742 1.10949 1.00818 
-0.0197275 1.10905 1.0083 
-0.0195778 1.1086 1.00867 
-0.0194281 1.10815 1.00903 
-0.0188822 1.10771 1.00908 
-0.0184354 1.10727 1.0092 
-0.0175925 1.10685 1.00901 
-0.0172446 1.10641 1.00921 
-0.0166988 1.10597 1.00926 
-0.0158559 1.10555 1.00907 
-0.0156072 1.1051 1.00935 
-0.013972 1.10471 1.00852 
-0.00802766 1.10403 1.00468 
-0.0220137 1.11798 1.00173 
-0.0222603 1.11751 1.00241 
-0.0224077 1.11705 1.00302 
-0.0224563 1.11659 1.00355 
-0.0225047 1.11613 1.00407 
-0.022355 1.11568 1.00444 
-0.0223044 1.11522 1.00488 
-0.0222538 1.11477 1.00533 
-0.0222032 1.11431 1.00577 
-0.0221525 1.11386 1.00622 
-0.022003 1.11341 1.00659 
-0.0218531 1.11296 1.00695 
-0.0218026 1.1125 1.0074 
-0.0214548 1.11206 1.0076 
-0.0213052 1.11161 1.00797 
-0.0210564 1.11116 1.00825 
-0.0209067 1.11071 1.00862 
-0.0204599 1.11027 1.00875 
-0.0203102 1.10982 1.00911 
-0.0199624 1.10938 1.00932 
-0.0196145 1.10893 1.00952 
-0.0191678 1.10849 1.00965 
-0.01882 1.10805 1.00985 
-0.018274 1.10762 1.0099 
-0.0176291 1.10718 1.00987 
-0.0172813 1.10674 1.01007 
-0.0166362 1.10631 1.01004 
-0.015595 1.10589 1.00968 
-0.0153463 1.10545 1.00997 
-0.0144041 1.10503 1.00969 
-0.013759 1.1046 1.00966 
-0.0115292 1.10423 1.00835 
-0.0207658 1.12019 0.999602 
-0.0212107 1.11972 1.00045 
-0.0218287 1.11901 1.00168 
-0.0222735 1.11853 1.00252 
-0.0224211 1.11807 1.00313 
-0.0225688 1.11761 1.00373 
-0.0225182 1.11715 1.00418 
-0.0224677 1.1167 1.00462 
-0.0225161 1.11624 1.00515 
-0.0225647 1.11578 1.00568 
-0.0224151 1.11533 1.00604 
-0.0222654 1.11488 1.00641 
-0.0221158 1.11442 1.00677 
-0.0219662 1.11397 1.00714 
-0.0219156 1.11352 1.00758 
-0.021865 1.11306 1.00803 
-0.0216163 1.11262 1.00832 
-0.0212684 1.11217 1.00852 
-0.0211188 1.11172 1.00889 
-0.0209692 1.11127 1.00925 
-0.0206213 1.11083 1.00946 
-0.0202736 1.11038 1.00966 
-0.0199258 1.10994 1.00987 
-0.0195779 1.1095 1.01008 
-0.01923 1.10906 1.01028 
-0.0188821 1.10861 1.01049 
-0.0184353 1.10817 1.01061 
-0.0177902 1.10774 1.01058 
-0.0173434 1.1073 1.01071 
-0.0167972 1.10687 1.01075 
-0.0160531 1.10644 1.01064 
-0.015408 1.10601 1.0106 
-0.014961 1.10557 1.01073 
-0.0140187 1.10515 1.01045 
-0.0131754 1.10473 1.01026 
-0.0114403 1.10434 1.00935 
-0.0110925 1.1039 1.00955 
-0.0208271 1.12076 1.00024 
-0.0212721 1.12028 1.00108 
-0.0214198 1.11982 1.00169 
-0.0219641 1.11934 1.00261 
-0.022211 1.11887 1.0033 
-0.0223588 1.11841 1.0039 
-0.0223082 1.11795 1.00435 
-0.022456 1.11749 1.00495 
-0.0225046 1.11703 1.00548 
-0.0225533 1.11657 1.00601 
-0.0226019 1.11611 1.00653 
-0.0224522 1.11566 1.0069 
-0.0220052 1.11522 1.00702 
-0.0219547 1.11477 1.00747 
-0.0218051 1.11432 1.00783 
-0.0217547 1.11386 1.00828 
-0.0216051 1.11341 1.00865 
-0.0213563 1.11296 1.00893 
-0.0212067 1.11251 1.0093 
-0.0209579 1.11206 1.00958 
-0.0206101 1.11162 1.00979 
-0.0202622 1.11118 1.00999 
-0.0200136 1.11073 1.01028 
-0.0197648 1.11028 1.01057 
-0.0193178 1.10984 1.01069 
-0.01897 1.1094 1.0109 
-0.0186221 1.10896 1.0111 
-0.0182742 1.10852 1.01131 
-0.0173316 1.1081 1.01104 
-0.0168846 1.10766 1.01116 
-0.0165368 1.10722 1.01137 
-0.0158915 1.10678 1.01133 
-0.0153454 1.10635 1.01138 
-0.0147003 1.10592 1.01135 
-0.0137577 1.1055 1.01107 
-0.0126169 1.10509 1.01064 
-0.0111788 1.10469 1.00997 
-0.0103352 1.10427 1.00977 
-0.00850065 1.10389 1.00878 
-0.0206901 1.12133 1.00071 
-0.0211354 1.12085 1.00156 
-0.0213823 1.12039 1.00224 
-0.0216294 1.11992 1.00293 
-0.0219755 1.11945 1.00369 
-0.0221235 1.11898 1.0043 
-0.0221721 1.11852 1.00482 
-0.0223199 1.11806 1.00543 
-0.0225669 1.11759 1.00611 
-0.0225166 1.11714 1.00656 
-0.0225653 1.11668 1.00708 
-0.0225149 1.11622 1.00753 
-0.0222661 1.11577 1.00782 
-0.0217199 1.11534 1.00786 
-0.0215703 1.11489 1.00823 
-0.0215198 1.11443 1.00867 
-0.0213703 1.11398 1.00904 
-0.02132 1.11353 1.00948 
-0.0210712 1.11308 1.00977 
-0.0208224 1.11263 1.01006 
-0.0203753 1.11219 1.01018 
-0.0200275 1.11175 1.01039 
-0.0198779 1.1113 1.01075 
-0.0196292 1.11085 1.01104 
-0.0191821 1.11041 1.01116 
-0.018735 1.10998 1.01129 
-0.0184863 1.10953 1.01158 
-0.0182376 1.10908 1.01186 
-0.0176915 1.10865 1.01191 
-0.0165504 1.10824 1.01148 
-0.0163016 1.10779 1.01176 
-0.0157554 1.10735 1.01181 
-0.0153084 1.10692 1.01193 
-0.0146631 1.10649 1.0119 
-0.0140178 1.10605 1.01187 
-0.0124801 1.10566 1.01111 
-0.0115373 1.10524 1.01084 
-0.00980129 1.10486 1.00993 
-0.0093543 1.10442 1.01005 
-0.0200826 1.12215 1.00057 
-0.0207264 1.12166 1.00157 
-0.0211719 1.12119 1.00241 
-0.0213198 1.12072 1.00302 
-0.0215671 1.12026 1.0037 
-0.0218142 1.11979 1.00439 
-0.0219621 1.11933 1.00499 
-0.0222093 1.11886 1.00568 
-0.022258 1.1184 1.0062 
-0.0225051 1.11793 1.00689 
-0.0223556 1.11748 1.00725 
-0.0225037 1.11701 1.00786 
-0.0223541 1.11656 1.00822 
-0.0221053 1.11612 1.00851 
-0.0214599 1.11569 1.00848 
-0.0213103 1.11524 1.00884 
-0.0211608 1.11478 1.00921 
-0.0211103 1.11433 1.00965 
-0.0209609 1.11388 1.01002 
-0.020712 1.11343 1.0103 
-0.0203642 1.11299 1.01051 
-0.0200162 1.11254 1.01072 
-0.0197676 1.1121 1.011 
-0.0197171 1.11164 1.01145 
-0.0194684 1.11119 1.01173 
-0.0187237 1.11077 1.01162 
-0.0184749 1.11032 1.01191 
-0.0182263 1.10987 1.01219 
-0.0178784 1.10943 1.0124 
-0.0174312 1.10899 1.01252 
-0.0160916 1.10859 1.01193 
-0.0157438 1.10815 1.01214 
-0.0152967 1.10771 1.01226 
-0.0149487 1.10727 1.01247 
-0.0142041 1.10684 1.01236 
-0.0128643 1.10644 1.01176 
-0.0122189 1.10601 1.01173 
-0.0120694 1.10556 1.0121 
-0.00914291 1.10522 1.01023 
-0.00889409 1.10478 1.01051 
-0.00755446 1.10438 1.00992 
-0.0202178 1.12248 1.0015 
-0.0206637 1.122 1.00235 
-0.0210101 1.12153 1.00311 
-0.0212574 1.12106 1.0038 
-0.0214056 1.1206 1.0044 
-0.0216527 1.12013 1.00509 
-0.0219993 1.11966 1.00585 
-0.0221474 1.1192 1.00645 
-0.0221963 1.11874 1.00698 
-0.0223443 1.11827 1.00758 
-0.022294 1.11782 1.00803 
-0.0223429 1.11736 1.00855 
-0.0221934 1.11691 1.00892 
-0.0219447 1.11646 1.00921 
-0.0213983 1.11602 1.00925 
-0.0210504 1.11558 1.00946 
-0.0209008 1.11513 1.00982 
-0.0206521 1.11468 1.01011 
-0.0205026 1.11423 1.01047 
-0.0202539 1.11378 1.01076 
-0.0199059 1.11334 1.01097 
-0.0197563 1.11289 1.01133 
-0.0196068 1.11244 1.0117 
-0.0194574 1.11199 1.01206 
-0.0191094 1.11154 1.01227 
-0.0183647 1.11112 1.01216 
-0.0182151 1.11067 1.01252 
-0.0178671 1.11022 1.01273 
-0.0175191 1.10978 1.01293 
-0.0170721 1.10934 1.01306 
-0.0160296 1.10893 1.01271 
-0.0151857 1.10851 1.01251 
-0.0148378 1.10807 1.01272 
-0.0144898 1.10762 1.01293 
-0.013249 1.10722 1.01242 
-0.0125043 1.10679 1.0123 
-0.0120571 1.10635 1.01243 
-0.0119075 1.1059 1.01279 
-0.0103691 1.10551 1.01204 
-0.00823548 1.10514 1.01081 
-0.00699471 1.10474 1.0103 
-0.0203537 1.12281 1.00244 
-0.0206011 1.12234 1.00312 
-0.0209478 1.12187 1.00389 
-0.0210959 1.12141 1.00449 
-0.0211449 1.12095 1.00502 
-0.0216901 1.12047 1.00594 
-0.0220369 1.11999 1.0067 
-0.0219864 1.11954 1.00715 
-0.0221346 1.11907 1.00775 
-0.0220844 1.11862 1.0082 
-0.0221334 1.11816 1.00872 
-0.0220831 1.1177 1.00917 
-0.0219336 1.11725 1.00953 
-0.0217842 1.1168 1.0099 
-0.0212377 1.11637 1.00995 
-0.0207904 1.11593 1.01007 
-0.0204426 1.11548 1.01028 
-0.0201938 1.11504 1.01057 
-0.0199451 1.11459 1.01085 
-0.0198947 1.11413 1.0113 
-0.0196461 1.11369 1.01158 
-0.0195957 1.11323 1.01203 
-0.019347 1.11278 1.01231 
-0.0191975 1.11233 1.01268 
-0.018651 1.1119 1.01272 
-0.0181046 1.11146 1.01277 
-0.0178558 1.11102 1.01306 
-0.0175079 1.11057 1.01326 
-0.01716 1.11013 1.01347 
-0.0167127 1.10969 1.0136 
-0.0160671 1.10926 1.01356 
-0.0146275 1.10887 1.01289 
-0.0142795 1.10843 1.0131 
-0.0138323 1.10799 1.01322 
-0.0127896 1.10757 1.01287 
-0.0123425 1.10714 1.013 
-0.0118953 1.1067 1.01313 
-0.00995963 1.10632 1.01206 
-0.0101078 1.10586 1.01266 
-0.00747749 1.10551 1.01103 
-0.0196465 1.12364 1.00221 
-0.0201919 1.12316 1.00314 
-0.0205387 1.12268 1.0039 
-0.0207864 1.12221 1.00458 
-0.0208354 1.12175 1.00511 
-0.0211822 1.12128 1.00587 
-0.0217274 1.1208 1.0068 
-0.0217767 1.12034 1.00732 
-0.0217264 1.11988 1.00777 
-0.0218747 1.11942 1.00837 
-0.0218245 1.11896 1.00881 
-0.0219729 1.1185 1.00942 
-0.0218234 1.11805 1.00978 
-0.0216739 1.1176 1.01015 
-0.0213259 1.11715 1.01036 
-0.0209778 1.11671 1.01056 
-0.0205306 1.11627 1.01069 
-0.0200833 1.11583 1.01082 
-0.0197354 1.11539 1.01102 
-0.0196851 1.11494 1.01147 
-0.0195356 1.11448 1.01183 
-0.0194855 1.11403 1.01228 
-0.019336 1.11358 1.01264 
-0.0190873 1.11313 1.01293 
-0.0189378 1.11268 1.01329 
-0.0179942 1.11226 1.01302 
-0.0177455 1.11181 1.01331 
-0.0174968 1.11137 1.01359 
-0.0171488 1.11093 1.0138 
-0.0168008 1.11048 1.01401 
-0.0163534 1.11004 1.01413 
-0.01541 1.10963 1.01386 
-0.0140693 1.10923 1.01327 
-0.0137212 1.10879 1.01348 
-0.0129763 1.10836 1.01336 
-0.012529 1.10792 1.01349 
-0.0120817 1.10748 1.01362 
-0.0116345 1.10704 1.01374 
-0.00969829 1.10667 1.01267 
-0.00964796 1.10621 1.01312 
-0.00691766 1.10588 1.01141 
-0.0192118 1.12422 1.00245 
-0.0198567 1.12374 1.00345 
-0.0202037 1.12326 1.00422 
-0.0204515 1.12279 1.0049 
-0.0205006 1.12233 1.00542 
-0.0208476 1.12186 1.00619 
-0.0213932 1.12138 1.00711 
-0.0215416 1.12091 1.00771 
-0.0214914 1.12046 1.00816 
-0.0216399 1.11999 1.00876 
-0.0215897 1.11954 1.00921 
-0.0216389 1.11908 1.00973 
-0.0216881 1.11862 1.01026 
-0.02134 1.11817 1.01046 
-0.0211905 1.11772 1.01083 
-0.0209418 1.11728 1.01111 
-0.0203952 1.11684 1.01116 
-0.0198486 1.11641 1.01121 
-0.0195006 1.11597 1.01141 
-0.0193511 1.11551 1.01178 
-0.019301 1.11506 1.01222 
-0.0192509 1.1146 1.01267 
-0.0191013 1.11415 1.01303 
-0.0188526 1.1137 1.01332 
-0.0187032 1.11325 1.01369 
-0.017958 1.11283 1.01357 
-0.0175107 1.11239 1.0137 
-0.017262 1.11194 1.01399 
-0.0170132 1.11149 1.01427 
-0.0166651 1.11105 1.01448 
-0.0162178 1.11061 1.0146 
-0.0154727 1.11019 1.01449 
-0.0144296 1.10978 1.01414 
-0.0133865 1.10936 1.01379 
-0.0128399 1.10893 1.01384 
-0.0123927 1.10849 1.01396 
-0.0120446 1.10805 1.01417 
-0.011498 1.10762 1.01422 
-0.00946198 1.10725 1.01307 
-0.00921325 1.1068 1.01336 
-0.00916317 1.10634 1.0138 
-0.0188763 1.1248 1.00277 
-0.0195215 1.12432 1.00377 
-0.0197692 1.12385 1.00445 
-0.0201165 1.12337 1.00521 
-0.0203644 1.1229 1.0059 
-0.0204137 1.12244 1.00642 
-0.0210588 1.12196 1.00742 
-0.0213067 1.12149 1.00811 
-0.0212566 1.12103 1.00855 
-0.0213058 1.12057 1.00908 
-0.021355 1.12011 1.0096 
-0.0213049 1.11966 1.01004 
-0.0213541 1.11919 1.01057 
-0.0212048 1.11874 1.01093 
-0.0208566 1.1183 1.01114 
-0.020608 1.11785 1.01143 
-0.0200612 1.11742 1.01147 
-0.0196138 1.11698 1.0116 
-0.0192658 1.11654 1.01181 
-0.019017 1.11609 1.01209 
-0.018967 1.11564 1.01254 
-0.0188176 1.11518 1.0129 
-0.0187674 1.11473 1.01335 
-0.0186181 1.11428 1.01371 
-0.0183693 1.11383 1.014 
-0.0180212 1.11339 1.0142 
-0.0172759 1.11296 1.01409 
-0.0171265 1.11251 1.01446 
-0.0167785 1.11207 1.01466 
-0.0165298 1.11162 1.01495 
-0.0159829 1.11119 1.015 
-0.0154363 1.11075 1.01504 
-0.0144923 1.11034 1.01477 
-0.0132504 1.10993 1.01426 
-0.0126043 1.10951 1.01423 
-0.012157 1.10907 1.01436 
-0.0118089 1.10862 1.01456 
-0.0113616 1.10819 1.01469 
-0.0111129 1.10774 1.01498 
-0.00897692 1.10738 1.01375 
-0.00882758 1.10692 1.01412 
-0.00420879 1.10667 1.0109 
-0.0187144 1.12515 1.00346 
-0.0192606 1.12466 1.00438 
-0.0196079 1.12419 1.00515 
-0.0199553 1.12372 1.00591 
-0.0203027 1.12324 1.00667 
-0.0204513 1.12278 1.00728 
-0.0207987 1.1223 1.00804 
-0.0210466 1.12183 1.00872 
-0.0209966 1.12138 1.00917 
-0.0211453 1.12091 1.00977 
-0.0209959 1.12046 1.01014 
-0.0210452 1.12 1.01066 
-0.0209952 1.11954 1.0111 
-0.0207463 1.1191 1.01139 
-0.0203983 1.11865 1.0116 
-0.0198515 1.11822 1.01164 
-0.0195035 1.11778 1.01185 
-0.0193542 1.11733 1.01222 
-0.0191054 1.11688 1.0125 
-0.0187574 1.11644 1.01271 
-0.0185086 1.11599 1.01299 
-0.0184585 1.11553 1.01344 
-0.0183091 1.11508 1.0138 
-0.0181597 1.11463 1.01417 
-0.0180103 1.11418 1.01453 
-0.0174635 1.11375 1.01458 
-0.0169168 1.11331 1.01463 
-0.016668 1.11287 1.01491 
-0.0164193 1.11242 1.0152 
-0.0160711 1.11198 1.01541 
-0.0156237 1.11154 1.01553 
-0.0146797 1.11112 1.01526 
-0.0135367 1.11072 1.01483 
-0.0130892 1.11028 1.01496 
-0.0120458 1.10987 1.01461 
-0.0116976 1.10942 1.01482 
-0.0113496 1.10898 1.01502 
-0.0109022 1.10854 1.01515 
-0.0107528 1.10809 1.01551 
-0.00861638 1.10773 1.01429 
-0.00856633 1.10727 1.01473 
-0.00414503 1.10701 1.01168 
-0.0182796 1.12573 1.0037 
-0.0188259 1.12525 1.00462 
-0.0191734 1.12477 1.00538 
-0.0196203 1.1243 1.00622 
-0.0199678 1.12382 1.00699 
-0.0202159 1.12335 1.00767 
-0.0204642 1.12288 1.00835 
-0.0207123 1.12241 1.00904 
-0.0206623 1.12196 1.00948 
-0.0207118 1.1215 1.01 
-0.0207611 1.12103 1.01053 
-0.0207111 1.12058 1.01097 
-0.0206611 1.12012 1.01142 
-0.0203131 1.11968 1.01162 
-0.0198656 1.11924 1.01175 
-0.019418 1.1188 1.01188 
-0.0192687 1.11835 1.01224 
-0.0192187 1.1179 1.01269 
-0.0190694 1.11744 1.01305 
-0.0188206 1.117 1.01334 
-0.0182737 1.11656 1.01339 
-0.018025 1.11612 1.01367 
-0.0178757 1.11567 1.01404 
-0.0178257 1.11521 1.01448 
-0.0176763 1.11476 1.01485 
-0.0173282 1.11432 1.01505 
-0.016682 1.11389 1.01502 
-0.0165325 1.11343 1.01539 
-0.0161845 1.11299 1.01559 
-0.0159357 1.11255 1.01588 
-0.0154883 1.11211 1.01601 
-0.0142458 1.11171 1.0155 
-0.0135001 1.11128 1.01539 
-0.013152 1.11084 1.01559 
-0.0126051 1.1104 1.01564 
-0.0113627 1.11 1.01513 
-0.0110145 1.10956 1.01534 
-0.010567 1.10912 1.01546 
-0.0104176 1.10867 1.01583 
-0.0083801 1.10831 1.01469 
-0.00833017 1.10785 1.01513 
-0.00390752 1.10759 1.01208 
-0.017919 1.12608 1.00424 
-0.0184656 1.1256 1.00516 
-0.0190121 1.12512 1.00608 
-0.0194592 1.12464 1.00692 
-0.0197074 1.12417 1.0076 
-0.0200551 1.12369 1.00837 
-0.020204 1.12323 1.00897 
-0.020353 1.12276 1.00957 
-0.0203031 1.12231 1.01002 
-0.0203525 1.12185 1.01054 
-0.0203026 1.12139 1.01098 
-0.0202526 1.12093 1.01143 
-0.0201034 1.12048 1.01179 
-0.0195564 1.12005 1.01184 
-0.0192082 1.11961 1.01205 
-0.0191583 1.11915 1.01249 
-0.0191084 1.11869 1.01294 
-0.018959 1.11824 1.0133 
-0.0188098 1.11779 1.01367 
-0.018561 1.11734 1.01395 
-0.0180141 1.11691 1.014 
-0.0175665 1.11647 1.01413 
-0.0175166 1.11602 1.01457 
-0.0173671 1.11556 1.01494 
-0.0171186 1.11512 1.01522 
-0.0167703 1.11467 1.01543 
-0.0163229 1.11424 1.01556 
-0.016074 1.11379 1.01584 
-0.0158254 1.11334 1.01613 
-0.0153777 1.1129 1.01626 
-0.0142343 1.1125 1.01583 
-0.0136874 1.11207 1.01587 
-0.0132399 1.11163 1.016 
-0.0128917 1.11118 1.01621 
-0.0124442 1.11075 1.01633 
-0.0107044 1.11037 1.01543 
-0.0103562 1.10993 1.01564 
-0.0102069 1.10947 1.016 
-0.00826837 1.1091 1.01494 
-0.00811885 1.10865 1.0153 
-0.00806896 1.1082 1.01575 
-0.00354581 1.10795 1.01262 
-0.018478 1.12571 1.00624 
-0.0191242 1.12522 1.00724 
-0.0193726 1.12475 1.00792 
-0.019621 1.12428 1.0086 
-0.0197701 1.12381 1.0092 
-0.0199191 1.12335 1.00981 
-0.0199686 1.12289 1.01033 
-0.0199188 1.12243 1.01077 
-0.0198689 1.12197 1.01122 
-0.0197197 1.12152 1.01158 
-0.0195704 1.12107 1.01195 
-0.0191227 1.12063 1.01208 
-0.0189734 1.12018 1.01244 
-0.0189236 1.11972 1.01289 
-0.0188737 1.11927 1.01333 
-0.0187244 1.11882 1.01369 
-0.0185751 1.11836 1.01406 
-0.0184257 1.11791 1.01442 
-0.0180776 1.11747 1.01463 
-0.0174312 1.11704 1.0146 
-0.0170829 1.1166 1.01481 
-0.0169336 1.11615 1.01517 
-0.0166849 1.1157 1.01546 
-0.0164362 1.11525 1.01574 
-0.0159886 1.11481 1.01587 
-0.0157398 1.11437 1.01616 
-0.0154912 1.11392 1.01644 
-0.0146457 1.1135 1.01625 
-0.0139992 1.11307 1.01622 
-0.0136511 1.11263 1.01643 
-0.0131041 1.1122 1.01647 
-0.0127558 1.11175 1.01668 
-0.0122089 1.11132 1.01673 
-0.0114629 1.1109 1.01662 
-0.00992153 1.11051 1.01587 
-0.00967279 1.11006 1.01616 
-0.008032 1.10968 1.01533 
-0.00788268 1.10923 1.0157 
-0.0079323 1.10877 1.01622 
-0.00330842 1.10853 1.01302 
-0.0184162 1.12604 1.00701 
-0.0188637 1.12556 1.00785 
-0.0190128 1.1251 1.00845 
-0.0191619 1.12463 1.00906 
-0.0193111 1.12417 1.00966 
-0.0194603 1.1237 1.01026 
-0.0194103 1.12325 1.01071 
-0.0193605 1.12279 1.01115 
-0.0193108 1.12233 1.0116 
-0.0191615 1.12188 1.01196 
-0.0189128 1.12143 1.01225 
-0.0187635 1.12098 1.01261 
-0.0187137 1.12053 1.01306 
-0.018664 1.12007 1.0135 
-0.018614 1.11961 1.01394 
-0.0183653 1.11917 1.01423 
-0.0182161 1.11871 1.0146 
-0.0179672 1.11827 1.01488 
-0.0176192 1.11782 1.01509 
-0.0171715 1.11739 1.01521 
-0.0167238 1.11695 1.01534 
-0.0163755 1.11651 1.01555 
-0.0162263 1.11605 1.01591 
-0.0157786 1.11562 1.01604 
-0.0156293 1.11516 1.01641 
-0.0151817 1.11473 1.01653 
-0.0146346 1.11429 1.01658 
-0.0140874 1.11386 1.01663 
-0.0136398 1.11342 1.01676 
-0.0132916 1.11298 1.01696 
-0.0128439 1.11254 1.01709 
-0.0122968 1.11211 1.01714 
-0.0117496 1.11168 1.01719 
-0.0111031 1.11125 1.01715 
-0.00926292 1.11088 1.01617 
-0.00921308 1.11042 1.01662 
-0.00767144 1.11003 1.01587 
-0.00772098 1.10957 1.0164 
-0.00269802 1.10935 1.01288 
-0.0176831 1.12664 1.00701 
-0.0182302 1.12616 1.00793 
-0.0185784 1.12568 1.00869 
-0.0187276 1.12522 1.00929 
-0.0187774 1.12476 1.00982 
-0.0188271 1.12429 1.01034 
-0.0188769 1.12383 1.01086 
-0.0187276 1.12338 1.01123 
-0.0186778 1.12293 1.01167 
-0.0186281 1.12247 1.01212 
-0.0184789 1.12202 1.01248 
-0.0185286 1.12156 1.013 
-0.0183794 1.1211 1.01337 
-0.0183297 1.12065 1.01381 
-0.0181804 1.1202 1.01418 
-0.0181307 1.11974 1.01462 
-0.017882 1.11929 1.01491 
-0.0176332 1.11884 1.01519 
-0.0173844 1.1184 1.01548 
-0.0170361 1.11796 1.01569 
-0.0164889 1.11752 1.01573 
-0.0161407 1.11708 1.01594 
-0.0157926 1.11664 1.01615 
-0.0153448 1.1162 1.01628 
-0.0151956 1.11575 1.01664 
-0.0147479 1.11531 1.01677 
-0.0143002 1.11487 1.01689 
-0.0139519 1.11443 1.0171 
-0.0135042 1.11399 1.01723 
-0.013156 1.11355 1.01744 
-0.0126088 1.11312 1.01748 
-0.0120616 1.11268 1.01753 
-0.0115143 1.11225 1.01758 
-0.0108676 1.11182 1.01755 
-0.00872847 1.11147 1.01633 
-0.00788286 1.11105 1.01614 
-0.00753463 1.11061 1.01635 
-0.0075844 1.11014 1.01687 
-0.00494781 1.10981 1.01525 
-0.0173975 1.12676 1.00785 
-0.0178454 1.12628 1.00869 
-0.0180942 1.12581 1.00937 
-0.018144 1.12535 1.00989 
-0.0181939 1.12489 1.01042 
-0.0182437 1.12443 1.01094 
-0.0181941 1.12397 1.01138 
-0.0181443 1.12351 1.01183 
-0.0180947 1.12306 1.01227 
-0.0180449 1.1226 1.01272 
-0.0179952 1.12214 1.01316 
-0.017846 1.12169 1.01352 
-0.0178958 1.12123 1.01405 
-0.0176471 1.12078 1.01433 
-0.0175974 1.12033 1.01478 
-0.0174483 1.11987 1.01514 
-0.0170999 1.11943 1.01535 
-0.0169507 1.11898 1.01571 
-0.0166025 1.11854 1.01592 
-0.0161547 1.1181 1.01605 
-0.0158065 1.11766 1.01626 
-0.0153587 1.11722 1.01638 
-0.0150104 1.11678 1.01659 
-0.0146622 1.11634 1.0168 
-0.0143139 1.11589 1.017 
-0.0139656 1.11545 1.01721 
-0.0137168 1.115 1.01749 
-0.0132691 1.11457 1.01762 
-0.0129208 1.11413 1.01783 
-0.0123735 1.11369 1.01788 
-0.0117268 1.11326 1.01785 
-0.0110799 1.11284 1.01782 
-0.0104331 1.11241 1.01778 
-0.00988578 1.11198 1.01783 
-0.00754719 1.11163 1.01646 
-0.00719891 1.11119 1.01666 
-0.00505926 1.11083 1.01545 
-0.00481053 1.11038 1.01573 
-0.0168632 1.12643 1.00897 
-0.0172118 1.12596 1.00973 
-0.0174608 1.12549 1.01041 
-0.0175107 1.12503 1.01094 
-0.0174611 1.12457 1.01138 
-0.0174114 1.12411 1.01183 
-0.0173619 1.12365 1.01227 
-0.0173122 1.1232 1.01271 
-0.0172625 1.12274 1.01316 
-0.0172129 1.12228 1.0136 
-0.0171633 1.12183 1.01405 
-0.0170141 1.12138 1.01441 
-0.0167653 1.12093 1.0147 
-0.0166162 1.12048 1.01506 
-0.016467 1.12003 1.01543 
-0.0162183 1.11958 1.01571 
-0.0159695 1.11913 1.016 
-0.0156213 1.11869 1.0162 
-0.0153726 1.11824 1.01649 
-0.0150242 1.1178 1.0167 
-0.0145764 1.11736 1.01682 
-0.014228 1.11692 1.01703 
-0.0138797 1.11648 1.01724 
-0.013631 1.11603 1.01752 
-0.0132828 1.11559 1.01773 
-0.0128349 1.11515 1.01786 
-0.0124867 1.11471 1.01806 
-0.0119393 1.11428 1.01811 
-0.0112924 1.11385 1.01808 
-0.0105458 1.11343 1.01797 
-0.00989889 1.113 1.01794 
-0.00915239 1.11258 1.01783 
-0.00681316 1.11223 1.01646 
-0.00566852 1.11183 1.01603 
-0.00522062 1.11139 1.01616 
-0.00457374 1.11096 1.01613 
-0.01618 1.12565 1.01046 
-0.0160308 1.1252 1.01083 
-0.0163796 1.12473 1.01159 
-0.0164297 1.12426 1.01211 
-0.0164796 1.1238 1.01263 
-0.0162309 1.12335 1.01292 
-0.0163804 1.12289 1.01352 
-0.0163308 1.12243 1.01396 
-0.0160821 1.12198 1.01425 
-0.0158334 1.12154 1.01454 
-0.0157837 1.12108 1.01498 
-0.0154355 1.12064 1.01519 
-0.0150871 1.1202 1.01539 
-0.0151372 1.11973 1.01592 
-0.0150875 1.11928 1.01636 
-0.0147392 1.11884 1.01657 
-0.0144905 1.11839 1.01685 
-0.0141422 1.11795 1.01706 
-0.0137939 1.1175 1.01727 
-0.0134456 1.11706 1.01747 
-0.0131969 1.11661 1.01776 
-0.012749 1.11618 1.01789 
-0.0122015 1.11575 1.01793 
-0.0119528 1.1153 1.01822 
-0.0112062 1.11488 1.01811 
-0.0103598 1.11446 1.01792 
-0.00981245 1.11402 1.01797 
-0.00906584 1.1136 1.01786 
-0.00841879 1.11317 1.01783 
-0.00617857 1.11283 1.01654 
-0.00553153 1.1124 1.01651 
-0.00508355 1.11196 1.01663 
-0.00590886 1.12696 1.00266 
-0.00563538 1.12628 1.00316 
-0.00578517 1.12581 1.00377 
-0.00498874 1.12493 1.0041 
-0.0076798 1.12204 1.00913 
-0.00802873 1.12157 1.00989 
-0.00797912 1.12111 1.01034 
-0.00802922 1.12065 1.01086 
-0.00768095 1.12021 1.01107 
-0.0118661 1.11724 1.01728 
-0.0118166 1.11679 1.01773 
-0.00541866 1.11412 1.01579 
-0.00586715 1.11364 1.01663 
-0.00531965 1.1132 1.01668 
-0.00477201 1.11277 1.01673 
-0.00751735 1.12239 1.00983 
-0.00776679 1.12192 1.01051 
-0.00761772 1.12147 1.01088 
-0.00776758 1.121 1.01148 
-0.00670686 1.12323 1.00953 
-0.00735498 1.12273 1.01053 
-0.00750501 1.12227 1.01113 
-0.0073559 1.12181 1.0115 
-0.00750585 1.12135 1.0121 
-0.00654435 1.12357 1.01023 
-0.00709312 1.12308 1.01115 
-0.00714342 1.12262 1.01167 
-0.00709406 1.12216 1.01211 
-0.00704473 1.12171 1.01256 
-0.00658137 1.12391 1.01109 
-0.0068313 1.12343 1.01177 
-0.00688182 1.12297 1.01229 
-0.00683245 1.12251 1.01273 
-0.00648399 1.12207 1.01294 
-0.00631959 1.12425 1.01171 
-0.00656945 1.12378 1.01239 
-0.00652023 1.12332 1.01283 
-0.0065708 1.12286 1.01335 
-0.00530859 1.1251 1.01125 
-0.00615738 1.1246 1.0124 
-0.00630786 1.12413 1.01301 
-0.0061589 1.12368 1.01337 
-0.00630922 1.12321 1.01397 
-0.00534592 1.12544 1.01211 
-0.00589563 1.12495 1.01302 
-0.00594637 1.12448 1.01355 
-0.00589719 1.12403 1.01399 
-0.00604768 1.12356 1.01459 
-0.00537922 1.12577 1.01296 
-0.0056298 1.1253 1.01364 
-0.00568044 1.12484 1.01417 
-0.00573121 1.12437 1.01469 
-0.00548253 1.12393 1.01497 
-0.00521317 1.12612 1.01366 
-0.00536374 1.12565 1.01426 
-0.00531482 1.12519 1.01471 
-0.00546554 1.12473 1.01531 
-0.00429692 1.12697 1.01329 
-0.00504707 1.12647 1.01436 
-0.00509797 1.126 1.01488 
-0.00494912 1.12555 1.01525 
-0.00519981 1.12508 1.01593 
-0.00423061 1.12731 1.01407 
-0.00478113 1.12682 1.01498 
-0.00473232 1.12636 1.01543 
-0.00478331 1.1259 1.01595 
-0.00483426 1.12544 1.01647 
-0.00416443 1.12765 1.01485 
-0.00441549 1.12718 1.01552 
-0.00436666 1.12672 1.01597 
-0.00451763 1.12625 1.01657 
-0.00426894 1.1258 1.01685 
-0.00399854 1.128 1.01555 
-0.00414965 1.12753 1.01614 
-0.00400097 1.12708 1.01651 
-0.00425205 1.1266 1.01719 
-0.00308137 1.12885 1.01517 
-0.00383269 1.12835 1.01624 
-0.0038839 1.12788 1.01676 
-0.00373517 1.12743 1.01713 
-0.00398641 1.12695 1.0178 
-0.00301551 1.12919 1.01595 
-0.00356701 1.1287 1.01686 
-0.00351819 1.12824 1.01731 
-0.00356952 1.12778 1.01783 
-0.00362095 1.12731 1.01835 
-0.00294968 1.12953 1.01673 
-0.00320115 1.12906 1.0174 
-0.00325254 1.12859 1.01792 
-0.00320396 1.12813 1.01837 
-0.00275516 1.1277 1.0185 
-0.00288399 1.12987 1.0175 
-0.0030356 1.1294 1.0181 
-0.00288698 1.12895 1.01847 
-0.00293848 1.12848 1.01899 
-0.00196607 1.13072 1.01714 
-0.00261831 1.13022 1.01812 
-0.00266989 1.12976 1.01864 
-0.00262134 1.1293 1.01909 
-0.00277312 1.12883 1.01968 
-0.00180021 1.13107 1.01783 
-0.00235269 1.13058 1.01874 
-0.00230422 1.13012 1.01919 
-0.00235583 1.12965 1.01971 
-0.0023074 1.12919 1.02015 
-0.00173476 1.13141 1.01861 
-0.00198699 1.13093 1.01929 
-0.00193845 1.13047 1.01973 
-0.00209049 1.13 1.02032 
-0.000816207 1.13226 1.01824 
-0.00156929 1.13176 1.01931 
-0.00172134 1.13128 1.0199 
-0.0015728 1.13083 1.02027 
-0.00182503 1.13036 1.02094 
-0.000850823 1.1326 1.0191 
-0.001404 1.1321 1.02 
-0.00135562 1.13164 1.02045 
-0.00130739 1.13118 1.02089 
-0.00145952 1.13071 1.02149 
-0.000685297 1.13294 1.01979 
-0.00113833 1.13245 1.02062 
-0.000989936 1.132 1.02099 
-0.00104192 1.13153 1.02151 
-0.000893421 1.13108 1.02187 
-0.000620183 1.13328 1.02057 
-0.000872955 1.1328 1.02124 
-0.000624139 1.13236 1.02153 
-0.000776555 1.13189 1.02213 
2.24821e-05 1.13389 1.02066 
-0.000531234 1.13339 1.02156 
-0.000583455 1.13293 1.02208 
-0.000535253 1.13247 1.02252 
0.000464678 1.13448 1.0209 
-8.92133e-05 1.13399 1.02181 
-0.000141416 1.13352 1.02233 
-0.000294112 1.13305 1.02292 
-0.000446573 1.13258 1.02352 
0.000529677 1.13482 1.02167 
0.000176191 1.13434 1.02243 
0.000123985 1.13387 1.02295 
7.15442e-05 1.13341 1.02346 
0.000119586 1.13295 1.02391 
0.000972003 1.13541 1.02192 
0.000417676 1.13492 1.02283 
0.000465546 1.13446 1.02327 
0.000413194 1.13399 1.02379 
0.00036075 1.13353 1.0243 
0.0011372 1.13576 1.02262 
0.000783321 1.13528 1.02337 
0.00083138 1.13482 1.02381 
0.000678446 1.13434 1.0244 
0.000927161 1.1339 1.02469 
0.00120175 1.1361 1.02339 
0.00104878 1.13563 1.02399 
0.00119707 1.13517 1.02435 
0.000943635 1.13469 1.02502 
0.00174461 1.1367 1.02356 
0.00129014 1.13621 1.02438 
0.0015389 1.13576 1.02467 
0.00138571 1.13529 1.02527 
0.00238827 1.13731 1.02365 
0.00163208 1.1368 1.02471 
0.00157936 1.13633 1.02522 
0.00152647 1.13586 1.02574 
0.00293149 1.13791 1.02381 
0.00207453 1.13739 1.02495 
0.00192108 1.13692 1.02555 
0.00176771 1.13644 1.02614 
0.00171501 1.13598 1.02666 
0.00279482 1.13823 1.02474 
0.00223921 1.13773 1.02565 
0.00228688 1.13727 1.02609 
0.00223387 1.13681 1.0266 
0.00218106 1.13634 1.02712 
0.00285921 1.13857 1.02552 
0.00250451 1.13809 1.02627 
0.002552 1.13763 1.02671 
0.00249897 1.13716 1.02722 
0.00330193 1.13917 1.02576 
0.00284632 1.13867 1.02659 
0.00289398 1.13821 1.02703 
0.0028408 1.13775 1.02754 
0.00288844 1.13729 1.02799 
0.00328912 1.13927 1.02683 
0.00333653 1.13881 1.02727 
0.00318278 1.13833 1.02787 
0.0031296 1.13787 1.02838 
0.00365495 1.13963 1.02737 
0.00370231 1.13917 1.02781 
0.00354839 1.13869 1.02841 
-0.00281389 1.14532 1.0272 
-0.00286717 1.14486 1.02771 
-0.00381493 1.14224 1.03106 
-0.00356616 1.1418 1.03135 
0.00419844 1.14023 1.02754 
0.00404439 1.13975 1.02813 
0.00378968 1.13927 1.02881 
-0.00244296 1.14661 1.02678 
-0.00299995 1.14611 1.02768 
-0.00335552 1.14562 1.02843 
-0.00350964 1.14514 1.02902 
-0.00366369 1.14467 1.02962 
-0.00391855 1.14419 1.03029 
-0.00417346 1.14371 1.03096 
-0.0042268 1.14324 1.03148 
-0.00407881 1.14279 1.03184 
-0.00413225 1.14232 1.03236 
-0.00408489 1.14186 1.0328 
-0.00383607 1.14141 1.03308 
-0.00368811 1.14096 1.03345 
-0.00343943 1.14051 1.03373 
-0.00339209 1.14005 1.03417 
-0.00334479 1.13959 1.03461 
-0.00319682 1.13914 1.03497 
-0.00284729 1.1387 1.03518 
-0.00269931 1.13824 1.03555 
-0.00214845 1.13782 1.0356 
-0.00159755 1.13739 1.03565 
-0.00094597 1.13697 1.03563 
-0.000495821 1.13654 1.03576 
0.000457965 1.13614 1.03551 
0.00191521 1.13577 1.03487 
0.00186184 1.1353 1.03539 
0.00271488 1.1349 1.03521 
0.00824203 1.13341 1.03289 
0.0077856 1.13292 1.03371 
0.00783307 1.13246 1.03415 
0.00868598 1.13205 1.03397 
-0.00268245 1.14692 1.02778 
-0.00313893 1.14643 1.02861 
-0.0034947 1.14594 1.02935 
-0.0036489 1.14547 1.02995 
-0.00380308 1.14499 1.03054 
-0.00415882 1.1445 1.03129 
-0.00421236 1.14404 1.03181 
-0.00426575 1.14357 1.03232 
-0.00431937 1.1431 1.03284 
-0.00417133 1.14265 1.0332 
-0.00412402 1.14219 1.03364 
-0.00387522 1.14174 1.03393 
-0.00392875 1.14127 1.03445 
-0.00368006 1.14083 1.03473 
-0.00363282 1.14036 1.03517 
-0.00328339 1.13992 1.03538 
-0.00303464 1.13948 1.03567 
-0.00268506 1.13904 1.03588 
-0.00253715 1.13858 1.03624 
-0.00218768 1.13814 1.03645 
-0.00163662 1.13772 1.0365 
-0.000985045 1.1373 1.03648 
-0.000534717 1.13686 1.03661 
1.62274e-05 1.13644 1.03667 
0.000567187 1.13601 1.03672 
0.00121884 1.13559 1.0367 
0.00207202 1.13518 1.03652 
0.00252222 1.13475 1.03665 
0.00317406 1.13433 1.03663 
0.00432938 1.13394 1.03622 
0.0051826 1.13354 1.03605 
0.0055321 1.1331 1.03626 
0.00759422 1.13277 1.03515 
0.00784279 1.13233 1.03544 
-0.00178384 1.14801 1.0272 
-0.00244207 1.1475 1.02818 
-0.00289871 1.14701 1.029 
-0.0032546 1.14652 1.02975 
-0.00350974 1.14604 1.03042 
-0.00356327 1.14557 1.03094 
-0.00391919 1.14508 1.03169 
-0.00407356 1.14461 1.03228 
-0.00412709 1.14414 1.0328 
-0.00418062 1.14367 1.03331 
-0.00403267 1.14322 1.03368 
-0.00408624 1.14275 1.03419 
-0.00403909 1.14229 1.03463 
-0.00389104 1.14184 1.035 
-0.00374314 1.14138 1.03536 
-0.00349441 1.14094 1.03564 
-0.00324563 1.14049 1.03593 
-0.00299683 1.14004 1.03622 
-0.00284898 1.13959 1.03658 
-0.00249939 1.13915 1.03679 
-0.00225075 1.1387 1.03707 
-0.00169968 1.13827 1.03713 
-0.00124929 1.13784 1.03726 
-0.000396032 1.13743 1.03708 
5.41918e-05 1.137 1.03722 
0.000403758 1.13656 1.03742 
0.000954721 1.13613 1.03748 
0.00160664 1.13571 1.03746 
0.00235927 1.1353 1.03736 
0.00280949 1.13487 1.03749 
0.0040659 1.13449 1.03701 
0.00512074 1.1341 1.03667 
0.00547038 1.13366 1.03688 
0.00571899 1.13321 1.03717 
0.00798308 1.1329 1.03592 
0.00803028 1.13244 1.03636 
-0.00182204 1.14834 1.02805 
-0.00227875 1.14784 1.02887 
-0.00273571 1.14735 1.0297 
-0.00309171 1.14686 1.03044 
-0.00314546 1.14639 1.03096 
-0.00350136 1.1459 1.03171 
-0.00385753 1.14542 1.03246 
-0.00391117 1.14495 1.03297 
-0.00386401 1.14449 1.03341 
-0.00381682 1.14403 1.03385 
-0.00376975 1.14357 1.03429 
-0.00372256 1.14311 1.03473 
-0.00357468 1.14265 1.03509 
-0.00362833 1.14218 1.03561 
-0.00337957 1.14174 1.0359 
-0.00323157 1.14128 1.03626 
-0.00308371 1.14083 1.03662 
-0.00283497 1.14038 1.03691 
-0.0024855 1.13994 1.03712 
-0.00213579 1.1395 1.03733 
-0.00198799 1.13905 1.03769 
-0.00153764 1.13861 1.03782 
-0.000986435 1.13819 1.03787 
-3.20971e-05 1.13779 1.03762 
0.000317346 1.13735 1.03783 
0.000666957 1.13691 1.03804 
0.00131884 1.13649 1.03802 
0.00197077 1.13607 1.038 
0.00252184 1.13564 1.03805 
0.0033754 1.13524 1.03787 
0.0047329 1.13487 1.03731 
0.00528409 1.13444 1.03737 
0.00553269 1.13399 1.03765 
0.0059831 1.13356 1.03779 
0.00814695 1.13324 1.03661 
0.0081942 1.13278 1.03705 
-0.00155797 1.14869 1.02867 
-0.00211586 1.14819 1.02957 
-0.0023711 1.14771 1.03024 
-0.00252566 1.14723 1.03083 
-0.00288185 1.14674 1.03158 
-0.00343974 1.14624 1.03248 
-0.00369522 1.14576 1.03315 
-0.00384968 1.14528 1.03374 
-0.00370184 1.14483 1.0341 
-0.00345306 1.14438 1.03439 
-0.00330522 1.14393 1.03475 
-0.00325807 1.14347 1.03519 
-0.00321095 1.14301 1.03563 
-0.00316399 1.14254 1.03607 
-0.00301613 1.14209 1.03643 
-0.00296899 1.14163 1.03687 
-0.00272021 1.14118 1.03716 
-0.00226982 1.14075 1.03729 
-0.0020211 1.1403 1.03758 
-0.00187314 1.13985 1.03794 
-0.00152359 1.13941 1.03815 
-0.0012748 1.13896 1.03843 
-0.000622779 1.13854 1.03841 
0.000331644 1.13814 1.03816 
0.000580359 1.1377 1.03845 
0.000929948 1.13726 1.03865 
0.00208616 1.13687 1.03825 
0.00273825 1.13645 1.03823 
0.00308781 1.13601 1.03844 
0.00474802 1.13566 1.03764 
0.00519846 1.13523 1.03778 
0.00544717 1.13478 1.03806 
0.00589752 1.13435 1.03819 
0.00614634 1.1339 1.03848 
0.00841153 1.13359 1.03723 
0.00866023 1.13315 1.03751 
-0.00119294 1.14905 1.02921 
-0.00154931 1.14856 1.02995 
-0.00292106 1.14707 1.03242 
-0.00327752 1.14658 1.03317 
-0.00363386 1.14609 1.03392 
-0.00368763 1.14562 1.03443 
-0.00353975 1.14517 1.0348 
-0.00329103 1.14472 1.03508 
-0.00294137 1.14428 1.03529 
-0.00279351 1.14383 1.03565 
-0.00264569 1.14337 1.03602 
-0.00269949 1.14291 1.03653 
-0.00255155 1.14245 1.0369 
-0.00240372 1.142 1.03726 
-0.00205414 1.14156 1.03747 
-0.00170454 1.14112 1.03768 
-0.00165751 1.14066 1.03812 
-0.00140877 1.14021 1.0384 
-0.00116004 1.13976 1.03869 
-0.000911288 1.13932 1.03897 
0.000446822 1.13894 1.03841 
0.000695497 1.1385 1.0387 
0.00104519 1.13806 1.03891 
0.00129381 1.13761 1.03919 
0.00265199 1.13724 1.03863 
0.00350584 1.13684 1.03846 
0.00456144 1.13644 1.03813 
0.00491098 1.136 1.03834 
0.00536139 1.13557 1.03847 
0.00571093 1.13513 1.03868 
0.00626232 1.1347 1.03873 
0.00862891 1.1344 1.03741 
0.00877668 1.13395 1.03777 
0.00892475 1.1335 1.03813 
-0.00146374 1.14866 1.03094 
-0.00275875 1.14741 1.03312 
-0.00321611 1.14691 1.03394 
-0.00347174 1.14643 1.03461 
-0.00352567 1.14596 1.03513 
-0.00347859 1.1455 1.03556 
-0.00322983 1.14505 1.03585 
-0.00277949 1.14462 1.03598 
-0.00242983 1.14418 1.03619 
-0.00218109 1.14373 1.03648 
-0.00193241 1.14329 1.03676 
-0.00188541 1.14283 1.0372 
-0.00163675 1.14238 1.03749 
-0.00148879 1.14193 1.03785 
-0.00144173 1.14146 1.03829 
-0.00129385 1.14101 1.03865 
-0.00104517 1.14056 1.03894 
-0.000897326 1.14011 1.0393 
-0.000547819 1.13967 1.03951 
0.00101244 1.13931 1.0388 
0.00116033 1.13886 1.03916 
0.00140897 1.13841 1.03945 
0.00175858 1.13797 1.03966 
0.00352053 1.13763 1.03879 
0.00457636 1.13724 1.03846 
0.00492597 1.1368 1.03867 
0.00527553 1.13636 1.03888 
0.00572601 1.13593 1.03901 
0.00617656 1.13549 1.03914 
0.00662708 1.13506 1.03927 
0.00909509 1.13477 1.03787 
0.00904119 1.1343 1.03839 
-0.00102168 1.14925 1.03119 
-0.00168116 1.14874 1.03216 
-0.002418 1.148 1.03344 
-0.00287557 1.1475 1.03426 
-0.00313147 1.14702 1.03493 
-0.00328639 1.14654 1.03552 
-0.00323948 1.14608 1.03596 
-0.00309159 1.14563 1.03632 
-0.00274195 1.14519 1.03653 
-0.00249315 1.14474 1.03682 
-0.00174002 1.14433 1.03672 
-0.00169309 1.14387 1.03716 
-0.00134342 1.14343 1.03737 
-0.00129653 1.14296 1.03781 
-0.0011487 1.14251 1.03817 
-0.00110165 1.14205 1.03861 
-0.00095389 1.14159 1.03897 
-0.00080597 1.14114 1.03933 
-0.000557296 1.14069 1.03962 
-0.00020767 1.14025 1.03983 
0.00135281 1.1399 1.03912 
0.00150063 1.13944 1.03948 
0.00174941 1.139 1.03976 
0.00209906 1.13856 1.03997 
0.00275151 1.13814 1.03995 
0.0046147 1.1378 1.03901 
0.00516609 1.13738 1.03907 
0.0057176 1.13695 1.03912 
0.0060672 1.13651 1.03933 
0.00651785 1.13608 1.03946 
0.00696835 1.13565 1.03959 
0.00923521 1.13534 1.03835 
0.00938304 1.13489 1.03871 
0.00983365 1.13445 1.03884 
-0.000959858 1.14959 1.03196 
-0.00197633 1.14859 1.03368 
-0.0024342 1.14809 1.0345 
-0.00269016 1.14761 1.03517 
-0.00294607 1.14713 1.03584 
-0.00289923 1.14666 1.03628 
-0.00275147 1.14621 1.03664 
-0.00250267 1.14576 1.03693 
-0.00215296 1.14532 1.03714 
-0.00170237 1.14489 1.03727 
-0.00135274 1.14445 1.03748 
-0.00110399 1.144 1.03776 
-0.000855211 1.14356 1.03805 
-0.000606518 1.14311 1.03833 
-0.000559565 1.14265 1.03877 
-0.000411794 1.14219 1.03914 
-0.000365008 1.14173 1.03958 
-0.000217248 1.14128 1.03994 
0.000132494 1.14084 1.04015 
0.00159238 1.14048 1.03951 
0.00184117 1.14003 1.0398 
0.00219084 1.13959 1.04001 
0.0023386 1.13914 1.04037 
0.00430331 1.13881 1.03935 
0.00465285 1.13837 1.03956 
0.00490167 1.13792 1.03985 
0.00605882 1.13754 1.03944 
0.00661033 1.13711 1.0395 
0.00696006 1.13667 1.03971 
0.00741069 1.13624 1.03984 
0.00957712 1.13593 1.03867 
0.00962392 1.13547 1.03911 
0.00997365 1.13503 1.03931 
0.000219695 1.15093 1.03093 
-0.000339177 1.15043 1.03183 
-0.00133281 1.1492 1.03377 
-0.00199264 1.14868 1.03474 
-0.00224867 1.1482 1.03541 
-0.00240387 1.14773 1.036 
-0.00235703 1.14726 1.03644 
-0.00210828 1.14682 1.03673 
-0.00196052 1.14636 1.03709 
-0.00171173 1.14592 1.03738 
-0.0015639 1.14546 1.03774 
-0.00121438 1.14502 1.03795 
-0.00106661 1.14457 1.03831 
-0.000716884 1.14413 1.03852 
-0.000266187 1.14369 1.03865 
-1.74902e-05 1.14325 1.03894 
0.000231318 1.1428 1.03922 
0.000379041 1.14235 1.03959 
0.000324868 1.14188 1.0401 
0.000573616 1.14143 1.04039 
0.00112522 1.141 1.04044 
0.00228265 1.14062 1.04004 
0.00253143 1.14018 1.04033 
0.00288104 1.13974 1.04053 
0.00444229 1.13938 1.03982 
0.00479206 1.13894 1.04003 
0.00504078 1.13849 1.04032 
0.00629906 1.13812 1.03984 
0.0070526 1.13771 1.03974 
0.00770534 1.13729 1.03972 
0.00795405 1.13684 1.04001 
0.00981805 1.13651 1.03906 
0.00986489 1.13605 1.0395 
0.0101137 1.1356 1.03979 
0.000180755 1.15126 1.03177 
-0.000277348 1.15076 1.0326 
-0.000533715 1.15028 1.03326 
-0.00144999 1.14928 1.03491 
-0.00170623 1.1488 1.03558 
-0.0018615 1.14832 1.03617 
-0.00181468 1.14786 1.03661 
-0.00166699 1.14741 1.03697 
-0.00151917 1.14695 1.03733 
-0.00147248 1.14649 1.03777 
-0.00142576 1.14603 1.03821 
-0.00127796 1.14558 1.03857 
-0.00113022 1.14512 1.03894 
-0.000780478 1.14468 1.03915 
-0.000329718 1.14425 1.03928 
0.000120968 1.14382 1.03941 
0.000571586 1.14339 1.03954 
0.000921331 1.14295 1.03975 
0.00106913 1.14249 1.04011 
0.00141887 1.14205 1.04032 
0.00176866 1.14161 1.04053 
0.00282529 1.14122 1.04021 
0.00287192 1.14076 1.04065 
0.00413056 1.14039 1.04016 
0.00458135 1.13995 1.0403 
0.00483017 1.13951 1.04058 
0.00528072 1.13907 1.04072 
0.00603443 1.13866 1.04062 
0.00729318 1.13829 1.04014 
0.00824878 1.13789 1.03989 
0.00859849 1.13745 1.0401 
0.0100591 1.13709 1.03946 
0.010207 1.13664 1.03982 
0.0103547 1.13618 1.04019 
0.000724327 1.15186 1.03194 
-3.7156e-05 1.15134 1.03299 
-0.000293519 1.15086 1.03366 
-0.000448793 1.15038 1.03425 
-0.00080606 1.14989 1.035 
-0.00126459 1.14939 1.03582 
-0.00141988 1.14892 1.03641 
-0.00147423 1.14845 1.03693 
-0.00142755 1.14799 1.03737 
-0.00138091 1.14753 1.03781 
-0.0014352 1.14706 1.03832 
-0.00128741 1.1466 1.03868 
-0.00103877 1.14616 1.03897 
-0.000992 1.14569 1.03941 
-0.000743262 1.14525 1.03969 
-0.000393447 1.14481 1.0399 
5.7254e-05 1.14437 1.04004 
0.000609096 1.14395 1.04009 
0.00116082 1.14352 1.04015 
0.00161163 1.14309 1.04028 
0.0019614 1.14265 1.04049 
0.00241213 1.14222 1.04062 
0.00306502 1.1418 1.0406 
0.00361675 1.14138 1.04066 
0.00426959 1.14096 1.04064 
0.00472031 1.14052 1.04077 
0.00507004 1.14008 1.04098 
0.0055208 1.13965 1.04111 
0.0062747 1.13924 1.04101 
0.00723056 1.13885 1.04076 
0.00848946 1.13847 1.04028 
0.00934427 1.13807 1.04011 
0.0103001 1.13767 1.03986 
0.0102457 1.1372 1.04038 
0.0106966 1.13677 1.04051 
0.000607312 1.15195 1.03308 
0.000148751 1.15145 1.03391 
-0.000107735 1.15097 1.03457 
-0.000162113 1.1505 1.03509 
-0.00062073 1.15 1.03591 
-0.000978295 1.14951 1.03666 
-0.00113374 1.14903 1.03725 
-0.001087 1.14857 1.03769 
-0.00114145 1.1481 1.0382 
-0.00119594 1.14763 1.03872 
-0.00104801 1.14718 1.03908 
-0.000900507 1.14673 1.03944 
-0.000651728 1.14628 1.03973 
-0.000301979 1.14584 1.03994 
-0.000154238 1.14538 1.0403 
0.000296585 1.14495 1.04043 
0.000545278 1.1445 1.04072 
0.000996098 1.14407 1.04085 
0.00164902 1.14365 1.04083 
0.00209977 1.14322 1.04096 
0.00295489 1.14282 1.04079 
0.00350674 1.14239 1.04084 
0.0041596 1.14198 1.04082 
0.00450949 1.14154 1.04103 
0.00496026 1.1411 1.04117 
0.00551217 1.14068 1.04122 
0.00596296 1.14025 1.04136 
0.00671694 1.13984 1.04126 
0.00726879 1.13941 1.04131 
0.00822486 1.13901 1.04106 
0.00988826 1.13867 1.04028 
0.0107432 1.13827 1.04011 
0.0106888 1.1378 1.04062 
0.00145408 1.15257 1.03302 
0.000692151 1.15205 1.03407 
0.000435516 1.15157 1.03474 
0.000381064 1.1511 1.03526 
0.000124421 1.15062 1.03592 
