ply
format ascii 1.0
comment VCGLIB generated
element vertex 840
property float x
property float y
property float z
property float nx
property float ny
property float nz
element face 0
property list uchar int vertex_indices
end_header
0.280487 -0.0809202 1.00337 -0.31052 0.15128 -0.938452 
0.450556 0.0193574 0.987696 -0.322274 0.705372 -0.63134 
0.5341 0.040944 0.987618 -0.330079 0.72957 -0.598979 
0.152219 0.0213655 0.966927 -0.0785457 0.759792 -0.645404 
0.282934 -0.0756037 1.00383 -0.24481 0.543314 -0.803043 
0.437159 0.0129676 0.99255 -0.410821 0.443644 -0.796496 
-0.090892 0.0893055 0.935015 0.286043 0.370821 -0.883556 
0.284331 -0.0713855 1.00646 -0.274227 0.693716 -0.666001 
0.446179 0.0192644 0.995177 -0.205059 0.751056 -0.627587 
0.454402 0.024508 0.994411 -0.0775884 0.805893 -0.586955 
0.270391 -0.068421 1.00984 -0.410625 0.602264 -0.684591 
0.372246 -0.00646755 1.00153 -0.106644 0.770599 -0.628334 
0.435019 0.0189945 0.998445 -0.0487586 0.74657 -0.663518 
0.261908 -0.0660581 1.01214 -0.2198 0.441604 -0.86987 
0.331767 -0.0291379 1.00702 -0.301249 0.297676 -0.905891 
0.282871 -0.0580729 1.01369 -0.169719 0.340638 -0.924749 
0.239534 -0.0578485 1.0123 -0.271169 0.52799 -0.804795 
0.53342 0.0513772 1.00047 -0.46517 0.633234 -0.618573 
0.368137 -0.002672 1.00541 -0.296481 0.674037 -0.676589 
0.312853 -0.0352791 1.01373 -0.487782 0.475642 -0.732007 
0.251167 -0.0613986 1.01774 0.057766 0.471437 -0.880006 
0.308984 -0.0342823 1.01322 -0.118879 0.505008 -0.854889 
0.427977 0.0228885 1.00611 -0.276014 0.423623 -0.862763 
0.478676 0.0392405 1.0045 -0.152146 0.762055 -0.629384 
0.287107 -0.047106 1.01742 -0.354201 0.489978 -0.796532 
0.330493 -0.0191644 1.01371 -0.256715 0.380332 -0.888507 
-0.116339 0.0909001 0.948679 0.37336 0.654232 -0.65771 
0.257305 -0.0574092 1.01923 -0.201779 0.518137 -0.831155 
0.304677 -0.0338015 1.01626 -0.478494 0.607336 -0.634181 
0.360806 -0.000317151 1.01124 -0.302741 0.284235 -0.909703 
0.31054 -0.0284532 1.0169 -0.303283 0.420678 -0.855015 
0.336136 -0.0120964 1.0146 -0.383509 0.434727 -0.814821 
0.340572 -0.0113021 1.01488 -0.622532 0.344309 -0.702784 
0.421022 0.0263736 1.00906 0.0301148 0.753662 -0.656572 
0.324932 -0.0182285 1.01691 -0.0996892 0.487372 -0.867485 
0.13952 0.0408236 0.986812 0.293237 0.664046 -0.687789 
0.281572 -0.0408406 1.02301 0.0016843 0.496014 -0.868313 
0.332017 -0.0113267 1.01766 -0.260158 0.500455 -0.82575 
0.270588 -0.0431841 1.02458 -0.0809145 0.529329 -0.84455 
0.48179 0.0476624 1.0114 0.0299406 0.624359 -0.780563 
0.268843 -0.0402464 1.02616 -0.534814 0.572653 -0.621324 
0.262193 -0.0408561 1.02719 -0.142354 0.512517 -0.846795 
0.498941 0.0572644 1.01352 0.0571503 0.433631 -0.899276 
0.252918 -0.0414721 1.02791 0.121129 0.708 -0.695747 
0.413842 0.0274145 1.0173 -0.247722 0.398508 -0.883077 
0.388258 0.0207294 1.01846 -0.717681 0.550838 -0.426042 
0.33617 0.000205973 1.02357 -0.264883 0.482715 -0.834759 
0.289526 -0.0236603 1.02907 -0.141952 0.431448 -0.8909 
0.413296 0.0314414 1.0214 -0.235593 0.658994 -0.714299 
0.503146 0.0615739 1.01999 -0.199677 0.503635 -0.840524 
0.412275 0.0360487 1.02228 -0.60564 0.268456 -0.749087 
0.31309 -0.00476496 1.03002 -0.564089 0.350804 -0.747489 
0.335714 0.0122451 1.02933 -0.26024 0.551673 -0.792422 
0.269688 -0.0216941 1.03815 -0.174509 0.521337 -0.835317 
0.316554 0.00508803 1.03394 -0.64267 0.541127 -0.542363 
0.328488 0.0154109 1.03525 -0.201108 0.456996 -0.866435 
0.261809 -0.0178451 1.04263 -0.0678194 0.482303 -0.873375 
0.183361 0.0195324 1.02382 0.021539 0.739899 -0.672373 
0.299509 0.000340697 1.03979 -0.444373 0.60003 -0.665204 
0.279972 -0.0105172 1.04267 -0.444532 0.383927 -0.809315 
0.310281 0.00647504 1.03909 -0.274138 0.417585 -0.866297 
0.296927 0.000533076 1.04097 -0.600367 0.318915 -0.733385 
0.312326 0.00999549 1.03915 -0.338236 0.403841 -0.850005 
0.314517 0.0126985 1.04023 -0.353848 0.430336 -0.830423 
0.422024 0.0506028 1.03553 -0.312969 0.594165 -0.740958 
0.462925 0.0646917 1.03602 -0.551566 0.69833 -0.456191 
0.313308 0.0147374 1.04341 -0.495907 0.665669 -0.557639 
0.434895 0.0563564 1.03975 -0.838831 0.285075 -0.463784 
0.456775 0.0648289 1.03731 -0.861802 0.350969 -0.366222 
0.33686 0.0270088 1.04345 -0.501685 0.474547 -0.723269 
0.386431 0.0422761 1.04142 -0.419553 0.377311 -0.825598 
0.178171 0.0294737 1.03241 -0.113974 0.640414 -0.759526 
0.456446 0.0691966 1.03835 -0.452722 0.391786 -0.800966 
0.23062 -0.00236911 1.04872 0.194648 0.73543 -0.649042 
0.34619 0.0315198 1.04434 -0.203832 0.460844 -0.863757 
0.415647 0.0554783 1.04326 -0.347091 0.741562 -0.57412 
0.452283 0.0703484 1.04013 -0.615555 0.417971 -0.668126 
0.448629 0.0697283 1.04062 -0.264973 0.349234 -0.898791 
0.269927 -0.000480048 1.05363 -0.318844 0.585509 -0.745331 
0.390111 0.0482203 1.04574 -0.308334 0.577131 -0.756208 
0.276108 0.00561488 1.05586 -0.468592 0.403199 -0.786036 
0.253397 -0.00312062 1.05827 -0.387974 0.448738 -0.805053 
0.175157 0.0367735 1.03782 0.114184 0.591819 -0.797943 
0.355882 0.038948 1.05076 -0.384496 0.522037 -0.761341 
0.336461 0.0348053 1.05151 -0.082176 0.704011 -0.705418 
0.405331 0.0571592 1.04818 -0.322345 0.339579 -0.883618 
0.169693 0.038503 1.03878 0.209668 0.698118 -0.684595 
0.312105 0.0283726 1.05475 -0.705634 0.391758 -0.590429 
0.430137 0.0697099 1.0481 -0.204617 0.346424 -0.91549 
0.452574 0.0761283 1.04765 -0.242625 0.612352 -0.752435 
0.261093 0.00560552 1.06262 -0.388783 0.40675 -0.826682 
0.306296 0.028089 1.05805 -0.418464 0.559654 -0.715315 
0.427032 0.0751442 1.05438 -0.224246 0.609698 -0.760251 
0.260119 0.013647 1.06806 -0.399268 0.550572 -0.733114 
0.269094 0.0163106 1.06908 -0.33962 0.367189 -0.865927 
0.273948 0.0196025 1.06858 -0.463653 0.558474 -0.687846 
0.260633 0.0135381 1.0706 -0.146657 0.569976 -0.808467 
0.29211 0.0308498 1.06823 -0.0163601 0.683413 -0.729849 
0.294531 0.0330507 1.06849 -0.503063 0.391167 -0.770659 
0.455029 0.0940627 1.05861 -0.598743 0.197866 -0.776116 
0.48998 0.114827 1.05218 0.256091 0.444679 -0.858299 
0.247847 0.0120576 1.07834 0.120966 0.384335 -0.915234 
0.298555 0.0417385 1.07114 -0.724515 0.407936 -0.555578 
0.263415 0.024474 1.07577 -0.422081 0.542528 -0.7263 
0.277459 0.0317116 1.07617 -0.358967 0.328155 -0.87376 
0.29521 0.0391353 1.07361 -0.584732 0.530272 -0.613922 
0.371601 0.067231 1.07049 -0.152001 0.350175 -0.924269 
0.492338 0.123061 1.05591 0.0265855 0.72098 -0.692446 
0.252502 0.0226753 1.08172 0.0532746 0.369788 -0.927588 
0.305604 0.0427774 1.07668 -0.388436 0.279615 -0.878028 
0.440971 0.10346 1.06497 -0.117031 0.623163 -0.773286 
0.338064 0.0580246 1.08027 -0.588998 0.270485 -0.761525 
0.356392 0.0693117 1.08082 -0.281048 0.429649 -0.858145 
0.281103 0.0436143 1.0896 -0.54092 0.614919 -0.573829 
0.33774 0.0648972 1.08507 -0.148236 0.560885 -0.814515 
0.327582 0.0608101 1.08738 -0.430845 0.351123 -0.831315 
0.474789 0.131768 1.06781 -0.247313 0.281494 -0.927145 
0.455406 0.123324 1.07213 -0.654412 0.286066 -0.699936 
0.420944 0.109101 1.07744 -0.429612 0.394397 -0.812333 
0.4477 0.122733 1.07418 -0.330818 0.547741 -0.768465 
0.351695 0.0787513 1.08879 -0.552555 0.29981 -0.777687 
0.333592 0.0740568 1.09314 -0.410914 0.596368 -0.689561 
0.351291 0.0831531 1.09167 -0.537805 0.289746 -0.791715 
0.44468 0.127105 1.07883 -0.306715 0.477317 -0.823465 
0.433491 0.12296 1.08078 -0.0697904 0.602246 -0.795254 
0.425902 0.119164 1.08253 -0.0717215 0.652221 -0.754629 
0.440544 0.126328 1.08039 -0.0117904 0.614988 -0.788448 
0.330744 0.0767963 1.09632 -0.508686 0.216546 -0.833275 
0.346804 0.0869327 1.09604 -0.575589 0.20217 -0.792354 
0.315694 0.073079 1.10292 -0.256783 0.455972 -0.852146 
0.298722 0.0651479 1.1059 -0.557103 0.341595 -0.756934 
0.426209 0.125522 1.08702 -0.295831 0.446874 -0.844268 
0.480042 0.149452 1.07975 -0.440843 0.372174 -0.816789 
0.304646 0.0691776 1.10601 -0.374965 0.427568 -0.822549 
0.406806 0.120684 1.09365 -0.50112 0.302018 -0.810965 
0.293778 0.0695521 1.11225 -0.490228 0.279199 -0.825666 
0.429805 0.134899 1.09081 -0.451667 0.12646 -0.883179 
0.325992 0.0892593 1.10754 -0.608249 0.218546 -0.763067 
0.30583 0.0787742 1.11207 -0.50837 0.463691 -0.725638 
0.297652 0.0774697 1.11498 -0.231948 0.21994 -0.947537 
0.198012 0.0480143 1.12979 -0.352793 0.652152 -0.670995 
0.389734 0.123933 1.10638 -0.320692 0.667439 -0.672073 
0.301125 0.0885188 1.12069 -0.0117055 0.262919 -0.964747 
0.427935 0.150318 1.10625 -0.117626 0.490024 -0.863736 
0.192425 0.0538736 1.14929 0.159776 0.64423 -0.747957 
0.426692 0.154201 1.11115 -0.449347 0.602536 -0.659574 
0.192403 0.0564873 1.15252 -0.215741 0.7036 -0.677054 
0.317119 0.113153 1.13723 -0.250709 0.672961 -0.695894 
0.296442 0.107367 1.14217 -0.212664 0.648217 -0.731155 
0.273452 0.098436 1.14606 -0.273221 0.704438 -0.655071 
0.410876 0.157359 1.12256 -0.302349 0.669956 -0.678044 
-0.536328 -2.01752 2.33582 0.537521 0.468905 -0.700856 
0.315642 0.116338 1.14291 -0.287209 0.778644 -0.557875 
0.171062 0.0619473 1.16866 -0.212724 0.506389 -0.835655 
-0.991013 -2.05991 2.39623 -0.168743 0.975802 -0.139054 
-0.574142 -2.15086 2.49342 0.67074 0.322266 -0.668021 
0.167543 0.0627478 1.18132 -0.33161 0.585177 -0.740002 
0.41471 0.175926 1.14053 -0.592433 0.397037 -0.700988 
-0.47075 -2.07291 2.55211 0.181261 0.319579 -0.930061 
0.270929 0.121007 1.17394 -0.547211 0.425287 -0.720896 
0.444753 0.196602 1.14321 -0.524787 0.479796 -0.703132 
0.0923953 0.0374975 1.21937 -0.250333 0.613583 -0.748899 
-0.4367 -2.12802 2.64219 0.116077 0.957712 -0.263274 
0.473968 0.214856 1.14105 -0.261548 -0.0115947 -0.965121 
0.424951 0.201721 1.15055 0.161321 0.225761 -0.960733 
0.282341 0.13734 1.18518 -0.397644 0.405849 -0.822901 
0.352167 0.16902 1.17048 -0.37764 0.499113 -0.77992 
0.337857 0.163007 1.17366 -0.466487 0.463593 -0.753307 
0.456212 0.220634 1.14876 -0.200584 0.293204 -0.934771 
0.272449 0.137629 1.19087 -0.331291 0.563981 -0.756421 
0.12693 0.0685206 1.24144 -0.709159 0.466272 -0.528851 
0.213401 0.119139 1.21544 -0.49095 0.590312 -0.640703 
0.371528 0.206331 1.16902 -0.715226 -0.0454281 -0.697415 
0.310583 0.179807 1.19304 -0.515972 0.0353917 -0.855874 
0.31405 0.188348 1.19172 -0.277666 -0.0719723 -0.957978 
0.219733 0.138836 1.22634 -0.138185 0.544669 -0.827188 
0.121286 0.0787964 1.26678 -0.577104 0.387472 -0.718899 
0.27596 0.173342 1.20814 -0.710103 0.114099 -0.694791 
0.190851 0.125531 1.23869 -0.412935 0.42003 -0.808121 
0.266045 0.168668 1.21299 -0.4567 -0.119053 -0.881619 
0.360417 0.225873 1.17759 -0.578096 0.27737 -0.76738 
0.193147 0.129407 1.239 -0.574042 0.246138 -0.780956 
0.220415 0.1475 1.23113 -0.682546 0.2182 -0.697509 
0.299479 0.197299 1.19894 -0.747945 0.0669795 -0.660373 
0.213017 0.145874 1.23622 -0.333622 0.441428 -0.832969 
0.269563 0.183349 1.21312 -0.471268 -0.0482323 -0.88067 
-0.97494 -2.20731 3.03957 -0.720451 0.00239036 -0.693501 
-0.98034 -2.12879 2.99069 -0.221296 0.736087 -0.63969 
-0.86478 -2.15391 3.02601 0.425655 0.821973 -0.37839 
-0.696767 -2.14418 3.04328 -0.268507 0.464279 -0.844008 
0.25959 0.182975 1.21871 -0.803048 0.203887 -0.55995 
-0.621829 -2.11177 3.02531 -0.250959 0.482485 -0.839183 
0.287024 0.207819 1.21352 -0.505066 0.293796 -0.811537 
-0.710921 -2.13513 3.10315 0.354338 0.725075 -0.590517 
-0.597767 -2.13142 3.134 -0.323333 0.263124 -0.908967 
0.0026033 -1.86113 3.0986 -0.580344 -0.405619 -0.706169 
0.249929 0.21294 1.24562 -0.472998 0.264684 -0.840366 
0.268033 0.226531 1.24418 -0.119129 0.493853 -0.861346 
0.202835 0.200366 1.27371 -0.763213 0.214704 -0.609433 
0.407565 -0.214781 0.850706 -0.508307 0.760911 -0.403284 
0.392177 -0.212012 0.864528 -0.260957 0.93345 -0.246116 
0.332036 -0.241542 0.863686 -0.491024 0.571849 -0.657179 
0.342432 -0.230058 0.876026 -0.21699 0.975993 -0.0188101 
-0.0853889 0.0322263 0.834529 -0.246774 0.846527 -0.471693 
0.293186 -0.255492 0.891583 -0.255491 0.773343 -0.580229 
0.28759 -0.253662 0.903947 -0.661795 0.749601 0.0112022 
0.353255 -0.205525 0.903137 -0.465323 0.70675 -0.532897 
0.294208 -0.245927 0.904698 -0.394545 0.716781 -0.574943 
-0.0395039 0.0442561 0.854727 0.0822373 0.85112 -0.518491 
0.338002 -0.211262 0.907946 -0.263674 0.919977 -0.29003 
0.283391 -0.250729 0.914727 -0.149199 0.891135 -0.428507 
0.518089 -0.0482605 0.911136 -0.355325 0.917703 -0.177666 
0.00944442 0.0301866 0.871292 -0.10057 0.93691 -0.334793 
0.428495 -0.103716 0.922164 -0.661198 0.476654 -0.579325 
0.237102 -0.272237 0.939774 -0.476749 0.851306 -0.219064 
0.347969 -0.166777 0.931192 -0.241939 0.729554 -0.6397 
0.231752 -0.267245 0.948347 0.389432 0.921041 0.00510074 
0.0694057 0.028843 0.888604 0.307626 0.865835 -0.394584 
0.393593 -0.10944 0.939575 -0.347342 0.710066 -0.612502 
0.45917 -0.0570595 0.933726 -0.188344 0.643732 -0.741711 
0.208441 -0.360729 0.971486 -0.185439 0.89079 -0.414855 
0.277152 -0.204796 0.952021 -0.645241 0.665781 -0.3747 
0.0603016 0.0337331 0.895694 0.238705 0.803229 -0.545751 
0.0677485 0.0328348 0.896905 -0.222219 0.786825 -0.575782 
0.477604 -0.0360014 0.938087 -0.562812 0.491548 -0.664547 
-0.0711681 0.0511139 0.887777 -0.290037 0.90724 -0.304621 
0.481851 -0.0282675 0.941195 -0.467546 0.580897 -0.666303 
0.371198 -0.107911 0.95083 -0.489631 0.503938 -0.711553 
0.441873 -0.0477008 0.944687 -0.61618 0.404319 -0.675906 
0.456559 -0.0391605 0.945818 -0.487424 0.504339 -0.712783 
0.443611 -0.0475213 0.948349 -0.305412 0.617069 -0.725223 
0.00220735 0.0526001 0.90159 0.293855 0.918391 -0.264965 
0.438506 -0.0453742 0.950957 -0.277777 0.616384 -0.736825 
-0.0722333 0.0656493 0.899746 -0.054353 0.645964 -0.76143 
0.484162 -0.00523654 0.955419 -0.673122 0.517557 -0.528244 
0.280959 -0.145716 0.978306 -0.616163 0.670228 -0.413687 
0.297472 -0.130491 0.975904 -0.457598 0.619896 -0.637443 
0.509754 0.0150865 0.959301 -0.59605 0.72303 -0.349215 
0.369556 -0.0619307 0.97278 -0.468776 0.596403 -0.651576 
0.271233 -0.135799 0.987013 -0.714495 0.539724 -0.44519 
-0.135555 0.0997306 0.905516 0.408983 0.81944 -0.401562 
0.470037 0.00905645 0.972253 -0.443577 0.648561 -0.618554 
0.285624 -0.0895026 0.995227 -0.182437 0.884887 -0.428593 
0.302595 -0.071295 1.00125 -0.591078 0.696855 -0.406225 
0.435795 0.011109 0.99249 -0.735332 0.391752 -0.553008 
0.37463 -0.0168078 0.996031 -0.428204 0.840484 -0.332007 
0.460196 0.0244278 0.993699 -0.532161 0.637956 -0.556612 
0.371088 -0.0145841 0.999298 -0.570362 0.609873 -0.55022 
0.285561 -0.0716842 1.01087 0.00843247 0.840763 -0.541338 
0.304932 -0.0585661 1.01123 -0.683859 0.638662 -0.352771 
0.290671 -0.0590512 1.00936 -0.368903 0.345371 -0.862919 
0.276479 -0.0636175 1.01217 -0.169958 0.694827 -0.698806 
-0.156835 0.102516 0.935427 0.477044 0.582848 -0.657812 
0.285335 -0.0557216 1.01439 -0.0129411 0.808875 -0.587839 
0.32399 -0.0299754 1.01073 -0.402483 0.659759 -0.634607 
0.345546 -0.0190669 1.00949 -0.323523 0.352983 -0.877915 
0.247615 -0.0595975 1.01407 -0.041483 0.714249 -0.698661 
0.289261 -0.043764 1.01746 -0.581042 0.303684 -0.755094 
0.28907 -0.0435134 1.01839 -0.501291 0.491124 -0.712393 
0.325407 -0.0200984 1.01544 -0.283807 0.378148 -0.881168 
0.332455 -0.0161509 1.01479 -0.206493 0.463194 -0.861865 
0.281374 -0.0451046 1.02087 -0.355397 0.536851 -0.765169 
0.301341 -0.0325653 1.02 -0.701275 0.286231 -0.652906 
0.314369 -0.022418 1.01949 -0.31494 0.425514 -0.848381 
0.283833 -0.0388431 1.02244 -0.47589 0.38103 -0.792682 
0.316807 -0.0231364 1.02173 -0.183093 0.946365 -0.266217 
0.280815 -0.0387436 1.02447 -0.0909224 0.580855 -0.808913 
0.341634 -0.00136895 1.01972 -0.417813 0.476359 -0.773637 
0.280865 -0.0356992 1.02634 -0.103171 0.540446 -0.83503 
0.327781 -0.00688032 1.02216 -0.47563 0.580678 -0.660749 
0.257241 -0.0396354 1.0289 0.00781777 0.770954 -0.636843 
0.343517 0.00316906 1.02151 -0.601763 0.359902 -0.712988 
0.271009 -0.0355199 1.0295 0.0471591 0.770097 -0.636182 
0.279445 -0.0321084 1.02934 -0.316909 0.584412 -0.747015 
0.317284 -0.00789698 1.02726 0.00171996 0.916823 -0.399289 
0.334708 0.00699434 1.02708 -0.390415 0.452337 -0.801853 
0.414564 0.0351868 1.02348 -0.589955 0.574666 -0.567196 
0.381207 0.0270979 1.02596 -0.171837 0.639284 -0.749525 
0.499535 0.0636632 1.02193 -0.484627 0.52106 -0.70259 
0.0341778 0.0812226 0.983411 0.476013 0.842407 -0.252511 
0.265451 -0.0246762 1.03606 -0.0246409 0.553127 -0.832733 
0.389589 0.0317186 1.02909 -0.383808 0.741238 -0.550689 
0.334542 0.0164601 1.03358 -0.374111 0.522945 -0.765878 
0.32143 0.0168806 1.04092 -0.317317 0.880852 -0.351298 
0.287434 0.00121699 1.04639 -0.487283 0.456547 -0.744393 
0.273445 -0.000876397 1.05266 -0.479695 0.466772 -0.742978 
0.262873 -0.000205049 1.0552 -0.257502 0.422573 -0.868979 
0.267559 -0.000354062 1.05578 -0.152586 0.538425 -0.828743 
0.464438 0.0738847 1.04328 -0.0757896 0.85285 -0.516627 
0.26089 -0.000576382 1.05575 -0.169636 0.592122 -0.787791 
0.37016 0.0419016 1.04903 -0.40331 0.686095 -0.605487 
0.302238 0.0200634 1.05258 -0.35762 0.636375 -0.683473 
0.436746 0.0685322 1.04443 -0.303664 0.545126 -0.781426 
0.299519 0.0188458 1.05343 -0.615532 0.498508 -0.610418 
0.304656 0.0219136 1.05398 -0.550104 0.415025 -0.724666 
0.267274 0.00391804 1.06051 -0.128645 0.63529 -0.761483 
0.375179 0.0507288 1.05465 -0.560278 0.757788 -0.334434 
0.273504 0.0146711 1.06539 -0.391827 0.542684 -0.742944 
0.288594 0.0233925 1.06332 -0.435227 0.542901 -0.718217 
0.307072 0.0326267 1.06192 -0.564617 0.439418 -0.698655 
0.461881 0.0893032 1.05157 -0.411998 0.479499 -0.774815 
0.155566 0.0488842 1.04621 0.0634723 0.588297 -0.80615 
0.277886 0.0215521 1.06849 -0.650178 0.387106 -0.653771 
0.164367 0.0506687 1.05021 -0.335247 0.732723 -0.592222 
-0.129266 0.0984378 1.00817 0.559126 0.541971 -0.627412 
0.456739 0.0931817 1.05509 -0.598417 0.530283 -0.600581 
0.263166 0.0175239 1.07407 -0.503623 0.548081 -0.667811 
0.260505 0.0166573 1.074 -0.22414 0.566837 -0.792752 
0.399945 0.0727295 1.0615 0.0858521 0.663863 -0.74291 
0.279592 0.0283705 1.07132 -0.398965 0.394315 -0.827854 
0.250096 0.0146577 1.0744 -0.531335 0.603562 -0.594471 
0.349913 0.0514154 1.06794 -0.130338 0.645687 -0.752396 
0.270002 0.028075 1.07723 -0.397381 0.42379 -0.813935 
0.42852 0.094908 1.06538 -0.118752 0.791145 -0.599989 
0.386661 0.0861861 1.07606 -0.0087414 0.570871 -0.820993 
0.449951 0.115662 1.06792 -0.25351 0.725701 -0.639601 
0.334438 0.0695265 1.08803 -0.3423 0.63831 -0.689486 
0.0957009 0.0654956 1.07657 0.188889 0.844877 -0.500504 
0.364792 0.0907735 1.09002 -0.655378 0.578178 -0.485994 
0.231575 0.0373389 1.10759 0.0331107 0.952996 -0.30117 
0.395141 0.105323 1.08793 -0.0920519 0.532813 -0.841212 
0.324195 0.0798978 1.10077 -0.322768 0.197104 -0.925727 
0.330848 0.0845587 1.1001 -0.327189 0.259896 -0.908516 
0.218912 0.048055 1.12524 -0.274731 0.81113 -0.516324 
0.437142 0.161491 1.11059 -0.185325 0.739716 -0.646896 
0.293284 0.108679 1.14535 -0.526567 0.666845 -0.527299 
0.158841 0.0591948 1.17966 -0.189254 0.779095 -0.597658 
0.151514 0.0590772 1.1844 -0.146157 0.633236 -0.760033 
0.0886575 0.0349601 1.20761 0.399171 0.756695 -0.51776 
-0.315461 -1.98689 2.49278 -0.443651 -0.712206 -0.544 
0.234033 0.103882 1.17884 -0.478925 0.600298 -0.640526 
0.0917732 0.0374329 1.22123 -0.205366 0.745089 -0.634561 
0.265177 0.133238 1.19206 -0.289616 0.688339 -0.665065 
0.40453 0.210345 1.15917 -0.101591 0.260074 -0.96023 
0.374288 0.199684 1.16862 -0.578549 0.0225504 -0.815336 
0.378783 0.217672 1.16566 -0.473478 0.142586 -0.869188 
0.30989 0.188942 1.19485 -0.444427 0.0270012 -0.895408 
0.298158 0.193744 1.19888 -0.497964 -0.0711045 -0.864278 
0.149878 0.109553 1.26088 -0.566261 0.445664 -0.693349 
0.126827 0.0976762 1.27709 -0.254672 0.252498 -0.933481 
0.241955 0.183515 1.22939 -0.527314 0.124443 -0.840508 
0.187037 0.168155 1.27027 -0.659941 0.313317 -0.682869 
0.230193 0.211103 1.25687 -0.487701 0.408574 -0.771501 
0.527447 -0.261922 0.829108 -0.301679 0.691756 -0.656097 
-0.0252335 0.0174592 0.809326 0.857645 0.513763 0.0222211 
0.348648 -0.259479 0.848351 -0.380683 0.74817 -0.543436 
0.33031 -0.262464 0.857236 0.156373 0.951292 -0.265688 
0.506932 -0.170809 0.867124 -0.0608214 0.945517 -0.319841 
0.290375 -0.272301 0.877552 0.226833 0.66722 -0.709481 
0.416221 -0.173607 0.888678 -0.649278 0.685937 -0.328524 
-0.00291341 -0.111371 0.858484 -0.103384 0.792476 -0.601076 
0.361365 -0.205749 0.903063 -0.195058 0.770573 -0.606769 
-0.125395 0.0245387 0.845157 0.417751 0.574393 -0.703958 
0.315086 -0.233243 0.901849 -0.255744 0.918012 -0.303067 
0.48129 -0.0969323 0.899543 -0.492921 0.661428 -0.56528 
0.254563 -0.285566 0.912441 -0.366194 0.515571 -0.774654 
0.469658 -0.092882 0.906051 -0.213074 0.868635 -0.447294 
0.44123 -0.115637 0.909502 -0.627874 0.709732 -0.319459 
0.330436 -0.210426 0.915563 -0.470394 0.804607 -0.362405 
-0.156124 0.0535801 0.852386 0.125601 0.889631 -0.439069 
-0.0947131 0.0259917 0.863165 -0.0733212 0.955404 -0.286054 
0.0888526 0.0251455 0.882689 0.202981 0.751052 -0.628268 
0.222046 -0.286022 0.950887 -0.127555 0.443941 -0.886931 
0.398693 -0.112218 0.93439 -0.81429 0.461129 -0.352552 
0.325764 -0.169421 0.940915 -0.401207 0.627833 -0.666978 
0.2748 -0.219522 0.94767 -0.409627 0.782675 -0.468642 
-0.0163993 0.0439896 0.884705 -0.205729 0.717737 -0.665229 
0.534853 -0.00979646 0.929831 -0.825973 0.164647 -0.539128 
0.482208 -0.0403142 0.932639 -0.417477 0.600875 -0.681661 
0.354441 -0.136049 0.943063 -0.561285 0.693016 -0.452425 
0.203839 -0.350921 0.974505 -0.351294 0.846813 -0.399374 
0.32382 -0.156006 0.947922 -0.478395 0.441774 -0.758929 
0.362835 -0.121079 0.945561 -0.519328 0.462448 -0.718638 
0.528412 -0.00569954 0.935529 -0.0626236 0.568203 -0.820502 
0.537482 0.000817339 0.935044 -0.476021 0.454996 -0.752584 
0.459015 -0.0462356 0.939515 -0.351472 0.748285 -0.562616 
0.330098 -0.146162 0.950304 -0.627209 0.524096 -0.576135 
-0.104275 0.0507553 0.886937 0.175236 0.446857 -0.877275 
0.518917 -0.00371827 0.940108 -0.189933 0.571444 -0.798359 
-0.0998198 0.0501922 0.890646 0.307524 0.651409 -0.69361 
0.4941 -0.0160956 0.942287 -0.464488 0.370972 -0.804134 
0.269896 -0.18984 0.961642 -0.201688 0.459298 -0.865082 
-0.0842713 0.0507645 0.893352 -0.239381 0.594947 -0.76729 
0.525682 0.00678107 0.945844 -0.163163 0.553611 -0.816635 
0.037544 0.0400759 0.907013 -0.296379 0.713853 -0.634487 
0.267261 -0.180652 0.967897 -0.00592621 0.71555 -0.698536 
0.364561 -0.099057 0.958854 -0.45237 0.488737 -0.745988 
0.528642 0.00908412 0.947039 -0.664354 0.544724 -0.511771 
0.502876 -0.000913308 0.948366 -0.280741 0.789909 -0.545187 
0.418563 -0.0553249 0.95664 -0.334345 0.740112 -0.583479 
0.516023 0.00708041 0.950555 -0.43326 0.628891 -0.645586 
0.529647 0.013337 0.950335 -0.298807 0.814843 -0.496736 
0.49321 -0.00114941 0.952446 -0.408599 0.45247 -0.792665 
0.0882845 0.0353172 0.917629 0.0380494 0.701668 -0.711487 
0.429142 -0.040017 0.957988 -0.129514 0.779886 -0.612375 
0.521899 0.0140993 0.95236 -0.258678 0.798274 -0.543916 
0.465208 -0.0177019 0.956571 -0.31137 0.812623 -0.492638 
0.0546883 0.0457013 0.915887 0.166418 0.700673 -0.693803 
0.0603661 0.048699 0.917284 0.105681 0.925087 -0.364753 
0.48973 0.00562664 0.959863 -0.245705 0.781951 -0.572871 
0.505273 0.0126336 0.959007 -0.383451 0.720342 -0.577991 
0.528399 0.0206757 0.960003 -0.284663 0.798468 -0.530487 
0.494332 0.0108886 0.962268 -0.454892 0.673836 -0.582254 
0.480724 0.00648125 0.962883 -0.293871 0.753398 -0.588244 
0.505738 0.0158709 0.963097 -0.0685283 0.844333 -0.531418 
0.0567293 0.0512648 0.924722 0.18456 0.91018 -0.370822 
0.501308 0.0159613 0.964204 -0.322777 0.74422 -0.584767 
0.386011 -0.0511716 0.973972 -0.729766 0.537403 -0.422657 
0.357747 -0.0653042 0.975987 -0.310781 0.451513 -0.836392 
0.487851 0.0126948 0.966339 -0.436692 0.228014 -0.870236 
0.380843 -0.048358 0.976314 -0.464025 0.444822 -0.766039 
0.384148 -0.0432791 0.977262 -0.321267 0.731033 -0.601979 
0.513803 0.0245036 0.969176 -0.290325 0.754983 -0.587973 
0.402508 -0.0307832 0.976026 -0.487053 0.526811 -0.696598 
-0.0605572 0.094425 0.915628 0.453808 0.827404 -0.330848 
0.35649 -0.0624823 0.982253 -0.709688 0.418176 -0.566985 
0.464501 0.0103134 0.974622 -0.247252 0.582146 -0.774579 
0.389207 -0.0306672 0.981886 -0.388136 0.525679 -0.756976 
0.532744 0.0335688 0.976087 -0.0587661 0.840474 -0.538657 
0.462254 0.0123453 0.978196 -0.124721 0.780832 -0.612165 
0.401431 -0.0171483 0.982757 -0.379239 0.617437 -0.689166 
0.340023 -0.0521428 0.992161 -0.285848 0.500197 -0.81737 
0.460241 0.014947 0.982775 -0.513862 0.606702 -0.606513 
0.435394 0.00597001 0.98553 -0.296285 0.712511 -0.636038 
0.248483 -0.11725 1.00557 -0.370458 0.30999 -0.875595 
0.455906 0.0179326 0.987463 -0.121162 0.735492 -0.666612 
0.432857 0.00769906 0.989355 -0.536813 0.669621 -0.513264 
0.444147 0.0153555 0.988723 -0.522311 0.477409 -0.706592 
0.535362 0.0421744 0.989639 -0.389837 0.673887 -0.627617 
-0.0199217 0.0835608 0.940425 0.290806 0.840993 -0.456249 
0.328734 -0.0458052 1.00051 -0.644101 0.580964 -0.497608 
0.458933 0.0229261 0.991008 -0.0438761 0.779983 -0.624261 
0.356782 -0.025343 1.0001 -0.325999 0.352334 -0.87726 
0.375666 -0.0120261 0.995573 -0.0124288 0.488225 -0.872629 
0.234588 -0.0762593 1.00354 -0.292761 0.636776 -0.713307 
0.438488 0.0154852 0.992838 -0.366774 0.666913 -0.648617 
0.458407 0.0228469 0.994104 -0.465685 0.653748 -0.596449 
0.44608 0.0188797 0.994998 -0.0246003 0.762454 -0.646574 
0.453496 0.0235525 0.994355 -0.139334 0.729651 -0.669474 
0.330564 -0.0377175 1.00416 -0.424712 0.188418 -0.885504 
0.443195 0.0187766 0.997443 -0.362128 0.6367 -0.680791 
0.457321 0.0254977 0.996322 -0.216895 0.722915 -0.656011 
0.452974 0.0259113 0.998099 -0.391368 0.788511 -0.474429 
0.303286 -0.0432089 1.0104 -0.3574 0.487716 -0.796491 
0.300647 -0.0461684 1.01295 0.310319 0.755966 -0.576383 
0.46351 0.032443 1.00137 -0.395347 0.608244 -0.688288 
0.426788 0.0207627 1.003 -0.256492 0.678029 -0.688831 
0.358952 -0.00858184 1.00739 -0.483474 0.426335 -0.76452 
0.455185 0.0327681 1.00274 -0.320938 0.737336 -0.59442 
0.258758 -0.060259 1.01679 -0.119089 0.54326 -0.831075 
0.430377 0.0225755 1.00433 -0.146029 0.688198 -0.710675 
0.31412 -0.0354668 1.0123 -0.417519 0.586932 -0.693678 
0.51006 0.0475318 1.00394 -0.0272375 0.797048 -0.603302 
0.42755 0.0240375 1.0051 -0.0638505 0.749731 -0.658655 
0.285124 -0.0490006 1.01737 -0.238547 0.487206 -0.840075 
0.478833 0.0392944 1.00417 -0.0408673 0.781893 -0.622071 
0.218261 -0.0254655 1.00644 0.0432064 0.680508 -0.731466 
0.3474 -0.0100676 1.01107 -0.362069 0.45783 -0.811971 
0.353162 -0.00633582 1.01081 -0.479357 0.579371 -0.659201 
0.361275 -0.000923729 1.01089 -0.415415 0.417277 -0.808276 
0.325348 -0.0182284 1.01669 -0.287216 0.418597 -0.861559 
0.303121 -0.0299281 1.01906 -0.175448 0.347974 -0.920941 
0.0483592 0.0715676 0.969714 0.298633 0.87596 -0.378831 
0.480628 0.046318 1.00928 -0.179848 0.982509 -0.0482691 
0.499306 0.0511098 1.00957 -0.3331 0.273895 -0.902234 
0.296718 -0.0298145 1.02146 -0.245325 0.599115 -0.762152 
0.340025 -0.0034833 1.01828 -0.360866 0.438708 -0.822989 
0.379565 0.0152443 1.01571 -0.321765 0.59401 -0.737306 
0.519436 0.0591797 1.01291 -0.232817 0.739974 -0.631058 
0.409276 0.0263538 1.01595 0.0554688 0.749224 -0.65999 
0.492186 0.0533528 1.01395 -0.357733 0.347365 -0.866813 
0.494793 0.0546873 1.01342 -0.464681 0.641784 -0.610069 
0.36718 0.013265 1.01839 -0.240255 0.640501 -0.729408 
0.527916 0.0654444 1.01461 0.0334915 0.804751 -0.592667 
0.376771 0.0195797 1.02099 -0.295763 0.737232 -0.607465 
0.0313428 0.0814266 0.975971 0.354561 0.860056 -0.366864 
0.35583 0.0111363 1.02216 -0.415108 0.457868 -0.786157 
0.286487 -0.023337 1.02998 -0.219091 0.464109 -0.858255 
0.387144 0.0235516 1.02241 -0.337941 0.480228 -0.80943 
0.498044 0.0601355 1.01785 -0.688699 0.682642 -0.244322 
0.356387 0.0091858 1.02632 -0.339833 0.867841 -0.362445 
0.402967 0.0315256 1.02349 -0.0920048 0.378415 -0.921052 
0.289752 -0.0198642 1.03348 0.23975 0.70638 -0.665993 
0.386516 0.0259426 1.02593 -0.156923 0.757477 -0.633722 
0.317768 4.57296e-05 1.03042 -0.655955 0.664098 -0.358744 
0.132044 0.051584 0.999834 0.330146 0.688057 -0.646205 
0.517377 0.0698541 1.022 -0.112011 0.735393 -0.668319 
0.406796 0.035652 1.02638 0.0508611 0.748554 -0.66112 
0.414369 0.0389262 1.02602 -0.37038 0.740302 -0.561045 
0.355367 0.0206164 1.03145 -0.40952 0.61155 -0.676979 
0.245801 -0.0228353 1.03924 -0.201984 0.685482 -0.699512 
0.503902 0.0698665 1.02754 -0.47129 0.510338 -0.719334 
0.425972 0.0611808 1.02647 -0.988264 -0.0122757 -0.152265 
0.239778 -0.0133225 1.04053 -0.226033 0.627855 -0.744787 
0.312197 0.0103912 1.03892 -0.604089 0.567837 -0.55914 
0.422049 0.0505276 1.03518 -0.330936 0.585412 -0.740118 
0.463856 0.0656359 1.0326 -0.169732 0.662479 -0.729598 
0.431846 0.0554031 1.03477 -0.251392 0.64606 -0.7207 
0.424538 0.0541106 1.03613 -0.276987 0.457015 -0.845231 
0.330529 0.0234576 1.04048 -0.124962 0.669882 -0.731876 
0.0443234 0.069908 1.00322 0.256583 0.962421 -0.0889479 
0.325386 0.0232461 1.04259 -0.497195 0.419569 -0.759447 
0.00353875 0.0898871 0.994529 0.598459 0.799407 0.05287 
0.294264 0.00748926 1.04676 -0.578343 0.345251 -0.739136 
0.188438 0.0214861 1.0344 0.229758 0.646472 -0.72752 
0.380038 0.0410618 1.0428 -0.0788194 0.655521 -0.751053 
0.332752 0.0275337 1.04355 -0.419599 0.58439 -0.694568 
0.346311 0.0306898 1.04489 -0.289875 0.81599 -0.500133 
0.286186 0.00682842 1.0504 -0.281933 0.691101 -0.665502 
0.259903 -0.00476182 1.05436 -0.0346978 0.65839 -0.751877 
0.416783 0.0586067 1.04254 -0.348461 0.398539 -0.848376 
0.43036 0.0636543 1.04185 -0.583817 0.514911 -0.627713 
0.303825 0.0166027 1.04977 -0.205008 0.668272 -0.715111 
0.342097 0.0318958 1.0481 0.117576 0.702498 -0.701907 
0.185876 0.0269753 1.03906 0.160216 0.614518 -0.772463 
0.43745 0.0678669 1.04229 -0.263131 0.325294 -0.908265 
0.301355 0.0184588 1.05201 -0.411639 0.380399 -0.828161 
0.464753 0.0734994 1.04338 -0.40522 0.492477 -0.770236 
0.446377 0.0733577 1.04416 -0.332541 0.558987 -0.759572 
0.259818 7.95784e-05 1.0583 -0.0785083 0.636451 -0.767311 
0.477455 0.0830345 1.04303 0.0416315 0.72496 -0.687532 
0.244529 -0.0017173 1.062 -0.196093 0.600471 -0.77523 
0.477641 0.0865613 1.04494 -0.199456 0.651931 -0.731576 
0.452754 0.0762847 1.04738 -0.3593 0.561297 -0.745553 
0.407461 0.0617932 1.04958 -0.477678 0.463445 -0.746353 
0.423893 0.0680846 1.04874 -0.501728 0.31586 -0.805296 
0.330657 0.0359178 1.05665 -0.131007 0.973443 -0.187737 
0.35593 0.0445942 1.05661 -0.542647 0.788195 -0.290315 
0.36688 0.0512302 1.0604 -0.154545 0.954186 -0.256214 
0.274151 0.0200639 1.06881 -0.482289 0.494435 -0.723139 
0.40295 0.0726587 1.05939 -0.239091 0.591822 -0.769794 
0.183585 0.0418135 1.05652 0.28434 0.919578 -0.271158 
0.422117 0.080811 1.05924 -0.31241 0.519992 -0.79499 
0.454721 0.0949639 1.05675 0.1063 0.705094 -0.701101 
0.43974 0.0905711 1.0585 -0.349905 0.345354 -0.870802 
0.49731 0.117819 1.05152 -0.624667 0.276849 -0.730169 
0.431992 0.0873926 1.05957 -0.272366 0.512862 -0.814119 
0.37494 0.0600632 1.0689 -0.428257 0.492209 -0.757843 
0.504133 0.12585 1.05248 -0.418573 0.45523 -0.785851 
0.240617 0.0163093 1.07975 -0.0359864 0.686811 -0.725945 
0.265218 0.0260369 1.07703 -0.31954 0.23214 -0.918698 
0.283718 0.0355991 1.07655 -0.273686 0.665043 -0.694848 
0.158511 0.0555817 1.05943 -0.135585 0.845006 -0.517283 
0.441157 0.0988824 1.06223 -0.430538 0.299469 -0.851443 
0.134544 0.0531918 1.0594 -0.383213 0.810682 -0.442654 
0.288936 0.039744 1.08048 -0.35556 0.661733 -0.660066 
0.377201 0.0751675 1.07261 -0.339937 0.416024 -0.843426 
0.251671 0.0224079 1.0871 -0.359214 0.865205 -0.349837 
0.414024 0.092452 1.06997 -0.326011 0.457459 -0.827314 
0.457986 0.113491 1.06395 -0.678159 0.524467 -0.514814 
0.466186 0.119378 1.06351 -0.373723 0.404112 -0.83488 
0.337664 0.0606665 1.08115 -0.175006 0.54747 -0.818321 
0.435715 0.107372 1.06981 -0.0475804 0.584861 -0.809736 
0.339733 0.0654333 1.08227 -0.4726 0.486792 -0.734631 
0.411238 0.0977826 1.07419 -0.310414 0.466082 -0.828499 
0.328107 0.0557561 1.08788 -0.21243 0.524644 -0.824392 
0.233614 0.02738 1.09582 -0.154152 0.796832 -0.584205 
-0.0524588 0.0723791 1.05277 -0.073625 0.935222 -0.346322 
0.347632 0.0720067 1.08595 -0.32574 0.413747 -0.850122 
0.2821 0.0472088 1.09276 -0.46457 0.749614 -0.471438 
0.433217 0.113955 1.07478 -0.15912 0.580153 -0.798814 
0.41319 0.104954 1.07845 -0.43935 0.376353 -0.815678 
0.263854 0.0435384 1.09688 -0.468534 0.688087 -0.554086 
0.41586 0.107567 1.07834 -0.554807 0.353661 -0.753069 
0.472862 0.13351 1.07139 -0.304557 0.803413 -0.511638 
0.333788 0.074657 1.09301 -0.422876 0.351762 -0.835128 
0.265219 0.0477754 1.10139 -0.290438 0.838811 -0.46048 
0.330933 0.0765628 1.09653 -0.0675356 0.52577 -0.847942 
0.234872 0.0412297 1.10739 -0.000517436 0.728021 -0.685554 
0.266029 0.0514245 1.10504 -0.272274 0.833813 -0.480232 
0.245127 0.0448521 1.10699 -0.252956 0.918122 -0.305066 
0.433001 0.124794 1.08298 -0.394209 0.806013 -0.441522 
0.355067 0.0906525 1.09497 -0.279875 0.404679 -0.870577 
0.41328 0.116849 1.0868 -0.760736 0.569941 -0.310561 
0.420382 0.122599 1.08835 -0.442009 0.643155 -0.625284 
0.225537 0.0418222 1.11585 -0.0316186 0.711396 -0.70208 
0.425863 0.128268 1.0883 -0.591291 0.193817 -0.782822 
0.20528 0.0423259 1.11824 -0.317668 0.774329 -0.547267 
0.303854 0.0761421 1.11009 -0.325125 0.387106 -0.862811 
0.472964 0.158206 1.08724 -0.420092 0.782299 -0.459925 
0.428914 0.140559 1.09751 -0.441482 0.518735 -0.732125 
0.326318 0.0962072 1.11366 -0.731622 0.569411 -0.374834 
0.399637 0.132401 1.10608 -0.600659 0.421235 -0.679537 
0.205927 0.0501881 1.13581 0.0562819 0.717866 -0.693902 
0.314195 0.0975422 1.12034 -0.125351 0.880959 -0.456288 
0.333452 0.104998 1.11899 -0.324835 0.872624 -0.364705 
0.36777 0.122014 1.11738 -0.485916 0.460973 -0.742556 
0.379554 0.128304 1.11669 -0.68233 0.627842 -0.374486 
0.303753 0.0995452 1.1289 -0.320999 0.431305 -0.84317 
0.319965 0.106795 1.12776 -0.184276 0.749809 -0.635476 
0.390484 0.139146 1.11582 -0.35328 0.366219 -0.860858 
0.358424 0.124033 1.12413 -0.431965 0.814513 -0.387265 
0.480121 0.180045 1.1038 -0.353785 0.797044 -0.489445 
0.294131 0.100715 1.13573 -0.309256 0.774387 -0.551984 
0.442756 0.165749 1.11083 -0.448036 0.735624 -0.508056 
0.36213 0.130009 1.12667 -0.420753 0.729516 -0.539234 
0.326725 0.118062 1.1361 -0.189457 0.918281 -0.347657 
0.371944 0.139665 1.13083 -0.654616 0.504406 -0.563074 
0.375805 0.14253 1.13053 -0.208867 0.82472 -0.525558 
0.439068 0.172037 1.1199 0.00301962 0.478531 -0.878066 
0.318451 0.118375 1.14281 -0.239739 0.647094 -0.723737 
-0.580315 -2.0381 2.36042 0.683841 0.366545 -0.630878 
0.284566 0.107519 1.14846 -0.419627 0.80455 -0.420253 
-0.543279 -2.15823 2.45705 -0.367225 0.596428 -0.713737 
-0.586043 -2.04197 2.40634 -0.206365 0.440528 -0.873698 
-0.849742 -2.0975 2.42146 -0.328006 0.899113 -0.289843 
-0.578041 -2.15877 2.49847 0.712551 0.298871 -0.634782 
0.311802 0.125088 1.1539 -0.192315 0.562729 -0.80396 
-0.693097 -2.05296 2.42783 0.0243685 0.921668 0.387213 
0.319981 0.128665 1.15271 -0.337889 0.479668 -0.809784 
0.385472 0.160536 1.14327 -0.278873 0.514258 -0.81103 
0.345295 0.146943 1.15319 -0.421108 0.686069 -0.593277 
-0.561343 -2.04995 2.49356 0.00895338 0.933153 0.359367 
0.418667 0.180461 1.14429 -0.55576 0.725275 -0.406334 
0.100523 0.0442505 1.20553 -0.392433 0.831484 -0.39323 
0.374595 0.163022 1.1523 -0.609887 0.382149 -0.694262 
0.378287 0.166225 1.15295 -0.392644 0.701262 -0.595031 
0.29389 0.135632 1.17745 -0.310621 0.562922 -0.76592 
0.108442 0.0508269 1.22106 -0.568803 0.693658 -0.44193 
0.258377 0.121371 1.18507 -0.481412 0.7388 -0.471612 
0.474169 0.216242 1.14214 -0.391376 0.160626 -0.906104 
0.260066 0.134949 1.19736 -0.537229 0.427974 -0.72679 
0.403787 0.211701 1.15732 -0.226178 0.113224 -0.967483 
0.311502 0.161582 1.18631 -0.382586 0.783189 -0.490145 
0.100492 0.0522924 1.24853 -0.515804 0.818436 -0.253199 
0.225093 0.123 1.21028 -0.448667 0.380529 -0.808638 
0.291257 0.164393 1.19785 -0.370424 0.647939 -0.665553 
0.313474 0.180655 1.19103 -0.650964 0.391751 -0.650213 
0.181965 0.1124 1.23335 -0.505884 0.705511 -0.496322 
0.180755 0.113734 1.23513 -0.413929 0.462734 -0.783926 
0.216906 0.136933 1.2271 -0.189875 0.499592 -0.845196 
0.326669 0.213091 1.19169 -0.293369 0.511797 -0.807464 
-0.0865003 -2.10766 3.05469 -0.862852 0.282871 -0.418892 
-1.18258 -2.12075 2.9594 0.612158 0.746535 -0.260667 
0.289733 0.200749 1.20505 -0.571556 0.401629 -0.715554 
-0.682931 -2.18169 3.08862 0.439808 0.822906 -0.359716 
-0.904319 -2.14142 3.04161 0.457677 0.874973 -0.157967 
0.198373 0.148352 1.24785 -0.10659 0.433612 -0.894773 
0.242145 0.18019 1.22763 -0.427878 0.405486 -0.807775 
-0.894248 -2.13284 3.06921 0.368513 0.744825 -0.556268 
0.226282 0.171537 1.23978 -0.623826 0.683239 -0.379508 
-0.219328 -2.03363 3.09837 0.246916 0.848008 -0.46895 
0.213896 0.195277 1.25918 -0.603515 0.409931 -0.683905 
0.249124 0.216812 1.24489 -0.464375 0.355927 -0.81097 
0.346043 0.258903 1.2247 -0.354343 -0.0635594 -0.932953 
0.353985 0.171938 1.17317 0.0674722 0.478058 -0.875733 
0.413799 -0.242202 0.838103 -0.472713 0.441277 -0.762769 
0.376654 -0.203795 0.88742 -0.513915 0.835884 -0.192844 
-0.0902376 0.0334963 0.836406 -0.498971 0.578307 -0.645437 
0.296409 -0.251332 0.894954 -0.244436 0.593541 -0.766786 
0.321063 -0.227019 0.902307 -0.377578 0.723639 -0.577739 
-0.170493 0.0440948 0.8449 0.108092 0.589262 -0.800679 
-0.0364376 0.0416571 0.863005 0.177828 0.939928 -0.291399 
-0.0849393 0.189643 0.841919 -0.459991 0.882291 -0.0998549 
-0.149189 0.0748024 0.861994 0.440648 0.839478 -0.317972 
0.0480612 0.0187823 0.88295 0.197293 0.832962 -0.516962 
0.3449 -0.163612 0.934872 -0.298099 0.725348 -0.620489 
-0.15045 0.0679803 0.866524 0.0883152 0.897282 -0.432534 
0.395043 -0.116789 0.934808 -0.684359 0.656403 -0.317469 
0.064624 0.0314123 0.892401 -0.190225 0.781796 -0.593809 
-0.00724032 0.0473331 0.893988 0.138283 0.692261 -0.708274 
-0.130025 0.0717191 0.882086 0.416424 0.837371 -0.354121 
-0.149404 0.0840333 0.883859 0.161956 0.882174 -0.442198 
0.0413473 0.0410084 0.909365 0.0452802 0.807603 -0.587985 
0.390998 -0.0778943 0.958124 -0.488386 0.701181 -0.519446 
0.47042 -0.0214371 0.952334 -0.391109 0.35197 -0.850382 
-0.148412 0.090481 0.89282 -0.0164895 0.921485 -0.388065 
0.497622 0.00484147 0.955329 -0.287523 0.759244 -0.583848 
0.474128 -0.00603514 0.957416 -0.642748 0.598014 -0.478805 
0.481094 0.00466854 0.963151 -0.23916 0.564119 -0.790299 
0.480242 0.00790584 0.967249 -0.0209891 0.512887 -0.8582 
0.270067 -0.131879 0.988582 -0.499325 0.640771 -0.58317 
0.474608 0.00928424 0.970364 -0.110518 0.714602 -0.690745 
0.398312 -0.0299823 0.977355 -0.425747 0.709181 -0.561962 
0.472641 0.0129047 0.973902 -0.239157 0.642128 -0.728337 
0.520239 0.0282807 0.973509 -0.510547 0.614408 -0.601536 
-0.113444 0.0885346 0.91825 0.509861 0.795388 -0.327719 
0.0750864 0.0500215 0.941908 -0.104816 0.922131 -0.372409 
0.471294 0.0158456 0.979974 -0.335842 0.684329 -0.647227 
0.477935 -0.0218058 1.02189 -0.500021 0.780041 0.376184 
-0.00934035 0.0826877 0.934973 0.428333 0.881494 -0.198742 
0.425755 0.00315637 0.989459 0.0927741 0.706793 -0.701311 
-0.0900452 0.0905415 0.932337 -0.0414946 0.879393 -0.474285 
0.201469 -0.0634644 0.984616 -0.194497 0.162597 -0.967333 
0.454282 0.0222112 0.994137 -0.403644 0.704765 -0.58342 
0.265248 -0.070246 1.00991 -0.231188 0.351971 -0.907011 
0.436139 0.0164906 0.998581 -0.257563 0.23884 -0.936278 
0.518519 0.0444379 0.998408 -0.194058 0.528259 -0.82661 
0.433748 0.0223871 1.00246 0.0407726 0.60892 -0.792183 
0.462344 0.0353553 1.0004 0.0597801 0.847236 -0.527843 
0.456596 0.0307299 1.0048 -0.389193 0.731256 -0.560173 
0.362055 -0.00430613 1.00838 -0.271956 0.543999 -0.793791 
0.255438 -0.0550437 1.02044 -0.279484 0.504677 -0.816817 
0.268865 -0.0482519 1.02131 -0.263042 0.501306 -0.824319 
0.288748 -0.0399196 1.0212 -0.113099 0.366824 -0.92339 
0.184553 -0.00242574 1.0006 0.0217985 0.417814 -0.908271 
-0.0613671 0.096173 0.956791 0.121056 0.922188 -0.367307 
0.304418 -0.0263095 1.02113 -0.322343 0.500214 -0.803667 
0.318482 -0.00794125 1.01589 -0.341879 0.617659 -0.708249 
0.296082 -0.0300779 1.02204 -0.198539 0.595044 -0.778784 
0.315949 -0.0162868 1.02015 -0.444219 0.459705 -0.768987 
0.343404 -0.00337752 1.01776 -0.221343 0.596261 -0.771674 
0.139944 0.043933 0.989612 0.186846 0.654683 -0.732447 
0.371736 0.0138818 1.01642 -0.164837 0.535486 -0.828301 
0.238593 -0.0341695 1.02336 -0.138843 0.379793 -0.914593 
0.315419 -0.0138221 1.02342 -0.180386 0.548509 -0.816455 
0.287234 -0.0274592 1.02966 -0.655403 0.533574 -0.534552 
0.385826 0.0264296 1.02481 -0.286712 0.606569 -0.741532 
0.299866 -0.0121737 1.03226 -0.524888 0.465085 -0.712873 
0.177616 0.0255228 1.02741 0.00280813 0.920472 -0.390798 
0.333216 0.0268847 1.0434 -0.325451 0.579461 -0.747199 
0.179484 0.0291546 1.03276 0.209519 0.617124 -0.758459 
0.380913 0.0385059 1.04427 -0.400835 0.485901 -0.77668 
0.387027 0.0462179 1.04547 -0.675366 0.524009 -0.518936 
0.369952 0.0438607 1.04641 -0.268927 0.585251 -0.764957 
0.247216 0.000442945 1.06187 -0.254743 0.613319 -0.747627 
0.44584 0.0774138 1.04821 -0.525939 0.307404 -0.793026 
0.3682 0.0497209 1.05371 -0.0279605 0.642777 -0.765543 
0.287062 0.0255315 1.06417 0.0994139 0.418734 -0.902651 
0.297888 0.0316262 1.06521 -0.341371 0.68231 -0.646467 
-0.0670821 0.0866013 1.02079 0.0571296 0.98974 0.130961 
0.426924 0.0847206 1.0587 -0.59638 0.273051 -0.754833 
0.302673 0.0369177 1.07019 -0.615231 0.323774 -0.718791 
0.368063 0.0588416 1.06707 -0.101243 0.881195 -0.461785 
0.425117 0.0923804 1.0659 -0.34594 0.473711 -0.809891 
-0.170712 0.102075 1.01756 0.0507416 0.949543 0.309506 
0.233485 0.0266926 1.08995 -0.18288 0.893206 -0.410777 
0.251397 0.0386694 1.0976 -0.160413 0.750693 -0.640881 
0.274706 0.052192 1.10424 0.0993988 0.925348 -0.365856 
0.361059 0.107139 1.1062 -0.32193 0.444539 -0.83591 
0.421399 0.144258 1.10522 -0.65572 0.551053 -0.516112 
0.26911 0.0790898 1.12874 -0.453163 0.546103 -0.704567 
0.212581 0.0555311 1.13859 -0.521605 0.689816 -0.502078 
0.210028 0.061486 1.14755 -0.243056 0.854375 -0.459312 
0.442569 0.165575 1.1109 -0.503809 0.6857 -0.525349 
0.406546 0.149378 1.11782 -0.643017 0.563094 -0.51909 
0.207109 0.0623364 1.15248 -0.325622 0.726742 -0.604828 
0.269401 0.0920088 1.14263 -0.296513 0.602126 -0.741299 
0.256641 0.089978 1.14815 -0.159766 0.842697 -0.514137 
0.408095 0.157332 1.12485 -0.44025 0.703917 -0.557388 
0.222704 0.0818229 1.1642 -0.366351 0.54337 -0.755338 
0.313734 0.127766 1.15687 -0.746493 0.380043 -0.546183 
-0.531165 -2.10343 2.51943 -0.0880736 0.425913 -0.900467 
0.196774 0.0815088 1.1854 -0.408007 0.538555 -0.737217 
0.325757 0.148518 1.16732 -0.374846 0.685547 -0.624112 
0.162762 0.0790404 1.21136 -0.53603 0.548558 -0.641682 
0.114034 0.0585217 1.23143 -0.757338 0.509893 -0.40798 
0.113122 0.0595522 1.24896 -0.433173 0.799841 -0.415469 
0.373899 0.202821 1.1678 -0.452713 0.321594 -0.831642 
0.112379 0.0643767 1.24986 -0.621777 0.6881 -0.374048 
0.319057 0.180342 1.18616 -0.410276 0.598462 -0.688126 
0.124627 0.0794804 1.25641 -0.385846 0.883972 -0.264038 
0.112934 0.0784266 1.27342 -0.362925 0.355417 -0.861373 
-0.581385 -2.24949 3.09524 0.194435 0.693489 -0.693735 
0.405723 0.241931 1.18235 -0.374315 0.851996 -0.366047 
-0.439515 -2.12834 3.15229 -0.309534 0.160246 -0.937288 
0.252343 0.197577 1.23007 -0.507874 0.438129 -0.741692 
0.239654 0.205142 1.24422 -0.351602 0.804966 -0.477918 
0.192191 0.180249 1.27022 -0.418242 0.477695 -0.772581 
0.205281 0.189594 1.2662 -0.565538 0.388687 -0.727385 
0.252093 0.220332 1.24669 -0.320509 0.544912 -0.774819 
0.443257 -0.42349 0.839475 -0.799621 0.29632 -0.522304 
0.415362 -0.136926 0.912057 -0.36754 0.839821 -0.399519 
0.386132 -0.144151 0.926334 -0.624565 0.650221 -0.432585 
-0.0485516 0.0442898 0.870428 -0.020766 0.991093 -0.131543 
0.00949997 0.0317755 0.876325 0.222775 0.968713 -0.109393 
0.0569748 0.0237718 0.886721 0.030211 0.873425 -0.486021 
0.204031 -0.370407 0.964902 -0.294235 0.867253 0.40162 
0.430851 -0.0660226 0.941646 -0.42805 0.832841 -0.350926 
0.462949 -0.0182229 0.950244 -0.144789 0.909169 -0.390445 
0.515123 0.00576496 0.949167 -0.678406 0.649133 -0.344081 
0.480794 -0.00683675 0.95401 -0.234636 0.630306 -0.740041 
0.314397 -0.12116 0.96812 -0.240177 0.678065 -0.694653 
0.401523 -0.0472879 0.968171 -0.218231 0.822897 -0.52461 
0.369229 -0.0593431 0.977812 -0.473821 0.746754 -0.466747 
0.37239 -0.0485157 0.981615 -0.270955 0.705979 -0.654353 
0.280231 -0.0575003 1.01277 -0.0449334 0.425376 -0.903901 
0.154083 0.0293474 0.981468 0.278091 0.822605 -0.495969 
0.331635 -0.0243398 1.00974 -0.277981 0.508979 -0.814658 
-0.108076 0.0905101 0.946057 0.102492 0.868462 -0.485046 
0.357263 -0.00375271 1.01069 -0.298424 0.699268 -0.64959 
0.320209 -0.0238007 1.01659 -0.465873 0.631524 -0.619791 
-0.0530658 0.0951392 0.956053 0.214102 0.935842 -0.279928 
0.291507 -0.0350147 1.02113 -0.431912 0.624044 -0.65117 
0.406713 0.0347597 1.02712 -0.239574 0.694636 -0.678296 
0.409087 0.0391127 1.02832 -0.534768 0.555344 -0.63688 
0.268885 -0.0160674 1.04159 -0.140081 0.50062 -0.854258 
0.336732 0.017722 1.03205 -0.354804 0.794179 -0.49335 
0.260812 -0.0281774 1.036 0.0383565 0.526003 -0.849617 
0.255847 -0.0128393 1.04329 -0.165349 0.647733 -0.743708 
0.254224 -0.020214 1.05021 -0.12796 0.564865 -0.815201 
0.389519 0.0425681 1.03976 0.00392544 0.906891 -0.421346 
0.419881 0.0532959 1.03757 -0.313528 0.863632 -0.394765 
0.27982 -0.0063521 1.05109 -0.258429 0.751368 -0.607174 
0.103775 0.0518999 1.02191 0.12002 0.734379 -0.668044 
-0.0161289 0.0831842 1.00203 0.315906 0.948488 0.0239497 
0.340186 0.0339103 1.05157 0.085365 0.559085 -0.824704 
0.283499 0.014605 1.05926 -0.438727 0.662325 -0.607326 
0.356521 0.0422908 1.05495 -0.344318 0.870166 -0.352499 
0.357838 0.0454497 1.05867 -0.189106 0.603388 -0.774701 
0.357067 0.0539369 1.06939 -0.16541 0.950228 -0.264018 
0.497352 0.124845 1.05502 -0.403858 0.623318 -0.669607 
0.235241 0.020577 1.08435 -0.00456662 0.765797 -0.643066 
0.457249 0.116577 1.06545 -0.510206 0.568498 -0.645368 
0.444233 0.112478 1.06743 -0.0673529 0.747862 -0.660428 
0.253253 0.0320466 1.09406 -0.300334 0.826474 -0.476173 
0.350886 0.0832553 1.0908 -0.39202 0.701912 -0.594676 
0.258474 0.0490677 1.10565 -0.249069 0.875223 -0.414668 
0.266353 0.0514076 1.10625 -0.376823 0.838968 -0.392603 
0.31415 0.0692235 1.10111 -0.259722 0.617065 -0.742816 
0.333354 0.0804513 1.09923 -0.472524 0.543337 -0.693906 
0.264121 0.0599878 1.11881 -0.189492 0.978397 -0.0826568 
0.372897 0.118482 1.10405 -0.591899 0.690268 -0.416156 
0.410891 0.133373 1.10137 -0.22421 0.90611 -0.358739 
0.381298 0.126007 1.1125 -0.498101 0.755187 -0.426132 
0.348318 0.118604 1.12494 -0.601286 0.638196 -0.480792 
0.272894 0.0908228 1.13908 -0.389502 0.597406 -0.700995 
0.258436 0.0856807 1.14236 -0.32658 0.829232 -0.453564 
0.335046 0.114189 1.13197 -0.142128 0.912399 -0.383833 
0.300695 0.104638 1.1357 -0.394382 0.780265 -0.485437 
0.296492 0.104303 1.13788 -0.33549 0.806854 -0.486244 
0.383634 0.142202 1.12558 0.0449636 0.931812 -0.360144 
0.320749 0.117472 1.14075 -0.581749 0.309097 -0.752348 
0.442903 0.173511 1.11849 -0.488834 0.530744 -0.692352 
0.345201 0.130426 1.1371 -0.540548 0.58384 -0.605755 
0.436237 0.173423 1.12192 -0.528092 0.453203 -0.71814 
0.358732 0.138214 1.13702 -0.610276 0.622208 -0.490327 
0.378528 0.147664 1.13329 -0.222154 0.901176 -0.372194 
0.119577 0.0504698 1.17833 -0.114709 0.990333 -0.0779907 
0.394796 0.161098 1.1361 -0.504597 0.718453 -0.478756 
0.446278 0.187385 1.1316 -0.361019 0.816294 -0.45092 
0.345414 0.143126 1.151 -0.565384 0.603592 -0.562155 
0.343591 0.147131 1.15207 -0.2815 0.905502 -0.317528 
0.407305 0.174304 1.14258 -0.484271 0.725142 -0.489541 
0.238345 0.105828 1.17845 -0.368434 0.765459 -0.52757 
0.278876 0.136348 1.1856 -0.370686 0.750401 -0.547257 
0.344172 0.165427 1.17238 -0.558321 0.624749 -0.545863 
0.285334 0.142956 1.18699 -0.0317287 0.876059 -0.481159 
0.398338 0.194803 1.16084 -0.503401 0.681401 -0.531301 
0.202143 0.104998 1.20847 -0.519773 0.64351 -0.561899 
