-0.03525 0.1192099 0.07892165
-0.03475 0.1192274 0.07940039
-0.03425 0.1192405 0.07975943
-0.03375 0.1192536 0.08011851
-0.03325 0.1192711 0.08059724
-0.03275 0.1192886 0.081076
-0.03225 0.1193017 0.08143504
-0.03175 0.1193149 0.08179411
-0.03125 0.119328 0.08215317
-0.03075 0.1193367 0.08239253
-0.03025 0.1193455 0.08263192
-0.02975 0.1193542 0.08287127
-0.02925 0.1193586 0.08299096
-0.02875 0.1193673 0.08323032
-0.02825 0.1193717 0.08335002
-0.02775 0.1193848 0.08370908
-0.02725 0.119398 0.08406812
-0.02675 0.1194198 0.08466657
-0.02625 0.1194373 0.08514529
-0.02575 0.1194461 0.08538467
-0.02525 0.1194592 0.08574373
-0.02475 0.1194723 0.08610278
-0.02425 0.1194767 0.08622247
-0.02375 0.1194767 0.08622247
-0.02325 0.119481 0.08634216
-0.02275 0.1194767 0.08622247
-0.02225 0.1194767 0.08622247
-0.02175 0.1194548 0.08562405
-0.02125 0.1194461 0.08538467
-0.02075 0.1194198 0.08466657
-0.02025 0.1193892 0.08382876
-0.01925 0.1126396 -0.06284729
-0.01725 0.1127011 -0.06156373
-0.01675 0.1127011 -0.06156373
-0.01625 0.112708 -0.06142113
-0.01575 0.1126943 -0.06170636
-0.01225 0.1175568 0.03784145
-0.01175 0.1175183 0.03707912
-0.01125 0.1175504 0.03771439
-0.01075 0.1175697 0.03809556
-0.01025 0.1175954 0.03860378
-0.00975 0.1176211 0.03911201
-0.00925 0.117634 0.03936613
-0.00875 0.1175761 0.03822261
-0.00825 0.1176018 0.03873084
-0.00775 0.1175954 0.03860378
-0.00725 0.1175761 0.03822261
-0.00675 0.1174797 0.03631677
-0.00625 0.1174668 0.03606267
-0.00575 0.1173511 0.03377566
-0.00525 0.1173768 0.03428388
-0.00475 0.1126738 -0.0621342
-0.00425 0.1126738 -0.0621342
-0.00375 0.1126738 -0.0621342
0.01975 0.114419 -0.02577471
0.02025 0.1144319 -0.02550498
0.02075 0.1144773 -0.02456091
0.02125 0.1144903 -0.02429117
0.02175 0.1145162 -0.02375169
0.02225 0.1145227 -0.02361684
0.02275 0.1145227 -0.02361684
0.02325 0.1145357 -0.02334709
0.02375 0.1145487 -0.02307737
0.02425 0.1145616 -0.02280762
0.02475 0.1145811 -0.02240302
0.02525 0.1146005 -0.02199843
0.02575 0.1146135 -0.02172869
0.02625 0.11462 -0.02159382
0.02675 0.1146265 -0.02145895
0.02725 0.1146329 -0.02132408
0.02775 0.1146394 -0.02118923
0.02825 0.1146459 -0.02105435
0.02875 0.1146524 -0.02091948
0.02925 0.1146589 -0.02078463
0.02975 0.1146654 -0.02064975
0.03025 0.1146654 -0.02064975
0.03075 0.1146654 -0.02064975
0.03125 0.1146589 -0.02078463
0.03175 0.1146589 -0.02078463
0.03225 0.1146589 -0.02078463
0.03275 0.1146394 -0.02118923
0.03325 0.1146394 -0.02118923
0.03375 0.1146394 -0.02118923
0.03425 0.1146329 -0.02132408
0.03475 0.1146265 -0.02145895
0.03525 0.1146135 -0.02172869
0.03575 0.1146005 -0.02199843
0.03625 0.1145746 -0.02253789
0.03675 0.1145422 -0.02321224
0.03725 0.1145357 -0.02334709
0.03775 0.1145162 -0.02375169
0.03825 0.1144968 -0.02415631
0.03875 0.114419 -0.02577471
0.03925 0.114393 -0.02631418
0.03975 0.114393 -0.02631418
0.04025 0.1143217 -0.02779773
0.04075 0.1141921 -0.03049508
0.04125 0.1141921 -0.03049508
-0.0405 0.1197478 0.07485221
-0.04 0.1197865 0.07592936
-0.0395 0.1198037 0.0764081
-0.039 0.1198209 0.07688683
-0.0385 0.1198337 0.07724588
-0.038 0.1198423 0.07748526
-0.0375 0.1198466 0.07760493
-0.037 0.1198509 0.07772462
-0.0365 0.1198509 0.07772462
-0.036 0.1198509 0.07772462
-0.0355 0.1198595 0.07796398
-0.035 0.1198767 0.07844271
-0.0345 0.119881 0.07856238
-0.034 0.1199068 0.07928048
-0.0335 0.1199282 0.07987891
-0.033 0.1199583 0.08071668
-0.0325 0.1199755 0.08119543
-0.032 0.1199884 0.08155447
-0.0315 0.1200013 0.08191352
-0.031 0.1200099 0.0821529
-0.0305 0.1200227 0.08251195
-0.03 0.120027 0.08263162
-0.0295 0.1200313 0.08275129
-0.029 0.1200356 0.08287098
-0.0285 0.1200399 0.08299066
-0.028 0.1200442 0.08311036
-0.0275 0.1200571 0.08346941
-0.027 0.1200657 0.08370876
-0.0265 0.1200915 0.08442685
-0.026 0.1201129 0.08502528
-0.0255 0.1201301 0.08550403
-0.025 0.1201387 0.08574338
-0.0245 0.1201473 0.08598275
-0.024 0.1201516 0.08610244
-0.0235 0.1201559 0.08622211
-0.023 0.1201559 0.08622211
-0.0225 0.1201559 0.08622211
-0.022 0.1201473 0.08598275
-0.0215 0.1201301 0.08550403
-0.021 0.1201215 0.08526465
-0.0205 0.1200786 0.08406781
-0.02 0.1200743 0.08394814
-0.0195 0.1133771 -0.06341691
-0.019 0.1133907 -0.06313168
-0.0185 0.1134177 -0.06256123
-0.018 0.1134448 -0.06199078
-0.0175 0.1134583 -0.06170556
-0.017 0.1134651 -0.06156294
-0.0165 0.1134719 -0.06142035
-0.016 0.1134719 -0.06142035
-0.0155 0.1134719 -0.06142035
-0.011 0.1182483 0.03746116
-0.0105 0.1182483 0.03746116
-0.01 0.118261 0.03771526
-0.0065 0.1181531 0.0355554
-0.005 0.1134177 -0.06256123
-0.0045 0.1134448 -0.06199078
0.0205 0.1151906 -0.02523445
0.021 0.1152162 -0.02469496
0.0215 0.1152291 -0.02442522
0.022 0.1152483 -0.0240206
0.0225 0.1152612 -0.02375084
0.023 0.1152676 -0.02361599
0.0235 0.1152804 -0.02334623
0.024 0.1152932 -0.02307649
0.0245 0.1153125 -0.02267187
0.025 0.1153253 -0.02240212
0.0255 0.1153446 -0.0219975
0.026 0.115351 -0.02186262
0.0265 0.1153638 -0.02159288
0.027 0.1153703 -0.021458
0.0275 0.1153767 -0.02132311
0.028 0.1153831 -0.02118826
0.0285 0.1153895 -0.02105338
0.029 0.1153895 -0.02105338
0.0295 0.1154023 -0.02078365
0.03 0.1154023 -0.02078365
0.0305 0.1154023 -0.02078365
0.031 0.1153959 -0.0209185
0.0315 0.1153959 -0.0209185
0.032 0.1153895 -0.02105338
0.0325 0.1153831 -0.02118826
0.033 0.1153703 -0.021458
0.0335 0.1153638 -0.02159288
0.034 0.1153638 -0.02159288
0.0345 0.1153574 -0.02172776
0.035 0.1153574 -0.02172776
0.0355 0.1153253 -0.02240212
0.036 0.1153125 -0.02267187
0.0365 0.1152997 -0.0229416
0.037 0.115274 -0.0234811
0.0375 0.115274 -0.0234811
0.038 0.115274 -0.0234811
0.0385 0.1152483 -0.0240206
0.039 0.1151456 -0.02617856
0.0395 0.115152 -0.02604371
0.04 0.115152 -0.02604371
0.0405 0.1150943 -0.02725756
0.041 0.1149402 -0.03049454
0.0415 0.1149723 -0.02982016
-0.04025 0.1204514 0.07533082
-0.03975 0.1204809 0.07616858
-0.03925 0.1204935 0.07652763
-0.03875 0.1205104 0.07700634
-0.03825 0.1205146 0.07712601
-0.03775 0.1205188 0.0772457
-0.03725 0.1205273 0.07748508
-0.03675 0.1205273 0.07748508
-0.03625 0.1205231 0.07736538
-0.03575 0.1205231 0.07736538
-0.03525 0.1205357 0.07772443
-0.03375 0.1205905 0.07928027
-0.03325 0.1206243 0.08023772
-0.03275 0.1206411 0.08071645
-0.03225 0.120658 0.08119518
-0.03175 0.1206706 0.0815542
-0.03125 0.1206833 0.08191325
-0.03075 0.1206959 0.08227229
-0.03025 0.1207002 0.08239198
-0.02975 0.1207044 0.08251166
-0.02925 0.1207044 0.08251166
-0.02875 0.1207086 0.08263133
-0.02825 0.1207044 0.08251166
-0.02775 0.120717 0.08287069
-0.02675 0.1207339 0.08334942
-0.02625 0.1207718 0.08442654
-0.02575 0.1207929 0.08502495
-0.02525 0.1208056 0.08538398
-0.02475 0.1208182 0.08574302
-0.02425 0.1208224 0.08586271
-0.02375 0.1208267 0.0859824
-0.02325 0.1208351 0.08622175
-0.02275 0.1208309 0.08610208
-0.02225 0.1208309 0.08610208
-0.02175 0.1208224 0.08586271
-0.02125 0.1208056 0.08538398
-0.02075 0.1207971 0.08514462
-0.02025 0.1207592 0.08406749
-0.01875 0.1141688 -0.06284565
-0.01825 0.1141956 -0.06227521
-0.01775 0.114209 -0.06198998
-0.01725 0.1142157 -0.06184739
-0.01675 0.1142224 -0.06170477
-0.01625 0.1142358 -0.06141956
-0.01575 0.1142224 -0.06170477
-0.01525 0.1142224 -0.06170477
-0.01425 0.1142692 -0.06070651
-0.01375 0.1142826 -0.06042128
-0.01325 0.1142492 -0.06113433
-0.00575 0.1141755 -0.06270303
-0.00525 0.1141555 -0.06313085
0.02025 0.1158981 -0.02604296
0.02075 0.1159298 -0.02536855
0.02125 0.1159552 -0.02482903
0.02175 0.1159806 -0.02428951
0.02225 0.1159934 -0.02401976
0.02275 0.1160061 -0.02374999
0.02325 0.1160124 -0.02361513
0.02375 0.1160251 -0.02334536
0.02425 0.1160442 -0.02294072
0.02475 0.1160569 -0.02267097
0.02525 0.1160759 -0.02226631
0.02575 0.1160886 -0.02199657
0.02625 0.116095 -0.02186168
0.02675 0.1161077 -0.02159193
0.02725 0.1161077 -0.02159193
0.02775 0.1161141 -0.02145705
0.02825 0.1161141 -0.02145705
0.02875 0.1161141 -0.02145705
0.02925 0.1161268 -0.0211873
0.02975 0.1161268 -0.0211873
0.03025 0.1161268 -0.0211873
0.03075 0.1161268 -0.0211873
0.03125 0.1161204 -0.02132216
0.03175 0.1161204 -0.02132216
0.03225 0.1161204 -0.02132216
0.03275 0.1161204 -0.02132216
0.03325 0.1161013 -0.02172682
0.03375 0.1161013 -0.02172682
0.03425 0.116095 -0.02186168
0.03475 0.1161013 -0.02172682
0.03525 0.116095 -0.02186168
0.03575 0.1160759 -0.02226631
0.03625 0.1160632 -0.02253608
0.03675 0.1160442 -0.02294072
0.03725 0.1160188 -0.02348024
0.03775 0.1160251 -0.02334536
0.03825 0.1160188 -0.02348024
0.03875 0.1159806 -0.02428951
0.03925 0.1158981 -0.02604296
0.03975 0.1159108 -0.02577319
0.04025 0.1159044 -0.02590807
0.04075 0.1158409 -0.02725686
0.04125 0.1158155 -0.02779638
0.04175 0.1157266 -0.0296847
-0.0405 0.1211211 0.07485196
-0.04 0.121146 0.07557003
-0.0395 0.1211708 0.07628809
-0.039 0.1211832 0.07664713
-0.0385 0.1211915 0.07688649
-0.038 0.1211956 0.07700618
-0.0375 0.1211998 0.07712585
-0.037 0.1212039 0.07724552
-0.0365 0.1211956 0.07700618
-0.036 0.1211956 0.07700618
-0.0355 0.1212039 0.07724552
-0.034 0.1212536 0.07868168
-0.0335 0.1212908 0.07975876
-0.033 0.1213115 0.08035716
-0.0325 0.1213281 0.08083588
-0.032 0.1213446 0.08131459
-0.0315 0.121357 0.08167362
-0.031 0.1213695 0.08203265
-0.0305 0.1213777 0.08227201
-0.03 0.1213819 0.08239169
-0.0295 0.1213777 0.08227201
-0.029 0.1213777 0.08227201
-0.0285 0.1213736 0.08215235
-0.028 0.1213736 0.08215235
-0.0275 0.1213777 0.08227201
-0.026 0.1214481 0.08430655
-0.0255 0.1214729 0.08502461
-0.025 0.1214853 0.08538364
-0.0245 0.1214936 0.08562301
-0.024 0.1215019 0.08586237
-0.0235 0.1215102 0.08610173
-0.023 0.1215102 0.08610173
-0.0225 0.1215102 0.08610173
-0.022 0.1215102 0.08610173
-0.0215 0.1215019 0.08586237
-0.021 0.1214771 0.0851443
-0.0205 0.1214605 0.08466558
-0.02 0.1214315 0.08382784
-0.019 0.1149202 -0.06313002
-0.0185 0.1149467 -0.0625596
-0.018 0.11496 -0.0622744
-0.0175 0.1149666 -0.06213179
-0.017 0.1149798 -0.06184659
-0.0165 0.1149864 -0.06170398
-0.016 0.1149732 -0.06198918
-0.0155 0.1149798 -0.06184659
-0.0145 0.1150129 -0.06113356
-0.014 0.115046 -0.06042052
-0.0135 0.1150328 -0.06070574
-0.013 0.1149732 -0.06198918
-0.0125 0.1149467 -0.0625596
-0.009500001 0.1149335 -0.06284482
-0.008 0.1149467 -0.0625596
-0.0075 0.1149401 -0.06270221
-0.007 0.1149467 -0.0625596
-0.0065 0.1149732 -0.06198918
0.0205 0.1166504 -0.02590732
0.021 0.1166818 -0.02523288
0.0215 0.116707 -0.02469334
0.022 0.1167258 -0.02428868
0.0225 0.1167384 -0.02401892
0.023 0.116751 -0.02374914
0.0235 0.1167573 -0.02361427
0.024 0.1167698 -0.02334449
0.0245 0.1167887 -0.02293983
0.025 0.116795 -0.02280494
0.0255 0.1168138 -0.02240029
0.026 0.1168264 -0.02213053
0.0265 0.1168327 -0.02199564
0.027 0.116839 -0.02186075
0.0275 0.116839 -0.02186075
0.028 0.116839 -0.02186075
0.0285 0.116839 -0.02186075
0.029 0.1168453 -0.02172587
0.0295 0.1168641 -0.0213212
0.03 0.1168578 -0.02145609
0.0305 0.1168578 -0.02145609
0.031 0.1168578 -0.02145609
0.0315 0.1168641 -0.0213212
0.032 0.1168641 -0.0213212
0.0325 0.1168704 -0.02118633
0.033 0.1168704 -0.02118633
0.0335 0.1168516 -0.02159098
0.034 0.1168516 -0.02159098
0.0345 0.1168516 -0.02159098
0.035 0.1168516 -0.02159098
0.0355 0.116839 -0.02186075
0.036 0.1168264 -0.02213053
0.0365 0.1168201 -0.0222654
0.037 0.1167887 -0.02293983
0.0375 0.1167635 -0.02347938
0.038 0.1167635 -0.02347938
0.0385 0.116751 -0.02374914
0.039 0.1167258 -0.02428868
0.0395 0.1166504 -0.02590732
0.04 0.1166567 -0.02577243
0.0405 0.1166378 -0.02617708
0.041 0.1165875 -0.02725617
0.0415 0.1164681 -0.029819
0.042 0.1164241 -0.0307632
-0.04075 0.1217915 0.07437314
-0.04025 0.121824 0.07533056
-0.03975 0.1218443 0.07592891
-0.03925 0.1218606 0.07640763
-0.03875 0.1218687 0.07664697
-0.03825 0.1218728 0.07676664
-0.03775 0.1218768 0.07688633
-0.03725 0.1218768 0.07688633
-0.03675 0.1218687 0.07664697
-0.03625 0.1218687 0.07664697
-0.03575 0.1218809 0.077006
-0.03375 0.121958 0.07927984
-0.03325 0.1219824 0.07999791
-0.03275 0.1220067 0.08071595
-0.03225 0.1220189 0.08107498
-0.03175 0.1220311 0.081434
-0.03125 0.1220433 0.08179304
-0.03075 0.1220514 0.08203238
-0.03025 0.1220595 0.08227174
-0.02975 0.1220595 0.08227174
-0.02925 0.1220555 0.08215207
-0.02875 0.1220514 0.08203238
-0.02825 0.1220433 0.08179304
-0.02775 0.1220514 0.08203238
-0.02575 0.1221285 0.08430624
-0.02525 0.1221529 0.08502428
-0.02475 0.1221651 0.0853833
-0.02425 0.1221773 0.08574234
-0.02375 0.1221854 0.0859817
-0.02325 0.1221895 0.08610137
-0.02275 0.1221854 0.0859817
-0.02225 0.1221895 0.08610137
-0.02175 0.1221854 0.0859817
-0.02125 0.1221692 0.085503
-0.02075 0.1221488 0.0849046
-0.02025 0.1221367 0.08454558
-0.01925 0.1156719 -0.06341441
-0.01875 0.1156916 -0.06298658
-0.01825 0.1157112 -0.06255879
-0.01775 0.115685 -0.06312919
-0.01725 0.1157178 -0.0624162
-0.01675 0.1157439 -0.06184579
-0.01625 0.1157309 -0.06213098
-0.01575 0.1157309 -0.06213098
-0.01525 0.1157439 -0.06184579
-0.01425 0.1157898 -0.06084758
-0.01375 0.1157898 -0.06084758
-0.01325 0.1157767 -0.06113278
-0.01275 0.1157047 -0.06270139
-0.01225 0.1156785 -0.0632718
-0.01175 0.115685 -0.06312919
-0.01075 0.115685 -0.06312919
-0.01025 0.1156981 -0.062844
-0.00975 0.1157112 -0.06255879
-0.00925 0.1157178 -0.0624162
-0.00875 0.1157112 -0.06255879
-0.00825 0.1157243 -0.06227359
-0.00775 0.1157047 -0.06270139
0.02075 0.1174026 -0.02577167
0.02125 0.1174274 -0.0252321
0.02175 0.1174523 -0.02469253
0.02225 0.117471 -0.02428786
0.02275 0.1174834 -0.02401808
0.02325 0.1174897 -0.02388319
0.02375 0.1175021 -0.02361342
0.02425 0.1175083 -0.02347852
0.02475 0.1175145 -0.02334362
0.02525 0.117527 -0.02307384
0.02575 0.1175456 -0.02266917
0.02625 0.1175456 -0.02266917
0.02675 0.1175581 -0.02239938
0.02725 0.1175581 -0.02239938
0.02775 0.1175643 -0.02226448
0.02825 0.1175705 -0.02212961
0.02875 0.1175767 -0.02199471
0.02925 0.1175892 -0.02172493
0.02975 0.1175954 -0.02159003
0.03025 0.1176078 -0.02132024
0.03075 0.1176078 -0.02132024
0.03125 0.1176141 -0.02118537
0.03175 0.1176203 -0.02105047
0.03225 0.1176203 -0.02105047
0.03275 0.1176203 -0.02105047
0.03325 0.1176141 -0.02118537
0.03375 0.1176016 -0.02145514
0.03425 0.1176016 -0.02145514
0.03475 0.1175954 -0.02159003
0.03525 0.1175954 -0.02159003
0.03575 0.1175767 -0.02199471
0.03625 0.1175705 -0.02212961
0.03675 0.1175643 -0.02226448
0.03725 0.117527 -0.02307384
0.03775 0.1175083 -0.02347852
0.03825 0.1175083 -0.02347852
0.03875 0.1174834 -0.02401808
0.03925 0.1174585 -0.02455765
0.03975 0.1174088 -0.02563679
0.04025 0.1174026 -0.02577167
0.04075 0.1173777 -0.02631124
0.04125 0.1173155 -0.02766015
0.04225 0.117191 -0.03035799
-0.0405 0.1224984 0.07497136
-0.04 0.1225183 0.07556975
-0.0395 0.1225343 0.07604843
-0.039 0.1225462 0.07640746
-0.0385 0.1225502 0.07652715
-0.038 0.1225542 0.0766468
-0.0375 0.1225542 0.0766468
-0.037 0.1225462 0.07640746
-0.0365 0.1225462 0.07640746
-0.036 0.1225582 0.07676648
-0.0355 0.1225502 0.07652715
-0.034 0.1226298 0.0789206
-0.0335 0.1226577 0.0797583
-0.033 0.1226776 0.08035669
-0.0325 0.1226935 0.08083537
-0.032 0.1227095 0.08131409
-0.0315 0.1227214 0.0816731
-0.031 0.1227294 0.08191243
-0.0305 0.1227373 0.0821518
-0.03 0.1227334 0.08203211
-0.0295 0.1227334 0.08203211
-0.029 0.1227294 0.08191243
-0.0285 0.1227294 0.08191243
-0.028 0.1227174 0.08155341
-0.0275 0.1227254 0.08179277
-0.0255 0.122809 0.08430593
-0.025 0.1228369 0.08514363
-0.0245 0.1228488 0.08550265
-0.024 0.1228568 0.085742
-0.0235 0.1228648 0.08598134
-0.023 0.1228648 0.08598134
-0.0225 0.1228648 0.08598134
-0.022 0.1228687 0.08610103
-0.0215 0.1228528 0.08562233
-0.021 0.1228369 0.08514363
-0.0205 0.122813 0.08442557
-0.019 0.1164369 -0.06341357
-0.0185 0.1164498 -0.06312836
-0.018 0.1164563 -0.06298576
-0.0175 0.1164628 -0.06284317
-0.017 0.1164887 -0.06227279
-0.0165 0.1164887 -0.06227279
-0.016 0.1164822 -0.06241539
-0.0155 0.1164951 -0.06213018
-0.014 0.1165275 -0.06141721
-0.0135 0.1165275 -0.06141721
-0.013 0.1164757 -0.06255797
-0.0125 0.1164369 -0.06341357
-0.012 0.1164434 -0.06327096
-0.0115 0.1164563 -0.06298576
-0.011 0.1164563 -0.06298576
-0.0105 0.1164628 -0.06284317
-0.01 0.1164692 -0.06270057
-0.009500001 0.1164822 -0.06241539
-0.009000001 0.1164757 -0.06255797
-0.0085 0.1164498 -0.06312836
0.021 0.1181361 -0.02604071
0.0215 0.1181608 -0.02550112
0.022 0.1181854 -0.02496153
0.0225 0.1181977 -0.02469172
0.023 0.1182162 -0.02428703
0.0235 0.1182223 -0.02415215
0.024 0.1182285 -0.02401724
0.0245 0.1182408 -0.02374744
0.025 0.1182469 -0.02361256
0.0255 0.1182654 -0.02320787
0.026 0.1182777 -0.02293806
0.0265 0.11829 -0.02266827
0.027 0.1183023 -0.02239847
0.0275 0.1183085 -0.02226356
0.028 0.1183147 -0.02212869
0.0285 0.118327 -0.02185888
0.029 0.1183393 -0.02158909
0.0295 0.1183393 -0.02158909
0.03 0.1183516 -0.02131928
0.0305 0.1183639 -0.0210495
0.031 0.1183701 -0.02091459
0.0315 0.1183701 -0.02091459
0.032 0.1183701 -0.02091459
0.0325 0.1183701 -0.02091459
0.033 0.1183639 -0.0210495
0.0335 0.1183577 -0.0211844
0.034 0.1183454 -0.02145419
0.0345 0.1183393 -0.02158909
0.035 0.1183393 -0.02158909
0.0355 0.118327 -0.02185888
0.036 0.1183208 -0.02199378
0.0365 0.1183085 -0.02226356
0.037 0.1183023 -0.02239847
0.0375 0.1182777 -0.02293806
0.038 0.1182654 -0.02320787
0.0385 0.1182593 -0.02334275
0.039 0.1182469 -0.02361256
0.0395 0.1182162 -0.02428703
0.04 0.1181915 -0.02482663
0.0405 0.1181361 -0.02604071
0.041 0.1181423 -0.02590581
0.0415 0.1180746 -0.02738968
0.042 0.1179576 -0.02995275
0.0425 0.1179515 -0.03008763
-0.04075 0.1231694 0.07449256
-0.04025 0.1231967 0.07533027
-0.03975 0.1232123 0.07580894
-0.03925 0.1232201 0.07604828
-0.03875 0.1232279 0.07628763
-0.03825 0.1232318 0.07640731
-0.03775 0.1232318 0.07640731
-0.03725 0.1232279 0.07628763
-0.03675 0.123224 0.07616796
-0.03625 0.1232318 0.07640731
-0.03575 0.1232279 0.07628763
-0.03375 0.1233294 0.07939908
-0.03325 0.1233529 0.08011711
-0.03275 0.1233685 0.08059578
-0.03225 0.1233841 0.08107448
-0.03175 0.1233958 0.08143348
-0.03125 0.1234036 0.08167283
-0.03075 0.1234114 0.08191216
-0.03025 0.1234153 0.08203183
-0.02975 0.1234153 0.08203183
-0.02925 0.1234153 0.08203183
-0.02875 0.1234075 0.0817925
-0.02825 0.1233997 0.08155316
-0.02775 0.1234036 0.08167283
-0.02525 0.1234934 0.08442526
-0.02475 0.1235168 0.08514328
-0.02425 0.1235285 0.08550231
-0.02375 0.1235402 0.08586131
-0.02325 0.1235402 0.08586131
-0.02275 0.1235441 0.085981
-0.02225 0.1235441 0.085981
-0.02175 0.1235324 0.08562198
-0.02125 0.1235207 0.08526297
-0.02075 0.1235051 0.08478428
-0.02025 0.1234973 0.08454494
-0.01925 0.1171634 -0.06426829
-0.01875 0.1171954 -0.06355532
-0.01825 0.1171954 -0.06355532
-0.01675 0.1172338 -0.06269976
-0.01625 0.1172402 -0.06255715
-0.01575 0.1172402 -0.06255715
-0.01525 0.117221 -0.06298493
-0.01225 0.1171826 -0.06384051
-0.01175 0.1172082 -0.06327014
-0.01125 0.1172146 -0.06312753
-0.01075 0.1172146 -0.06312753
-0.01025 0.1172146 -0.06312753
-0.00975 0.1172146 -0.06312753
0.02225 0.1188944 -0.02577015
0.02275 0.1189126 -0.02536544
0.02325 0.1189309 -0.02496073
0.02375 0.1189492 -0.02455603
0.02425 0.1189674 -0.02415131
0.02475 0.1189796 -0.0238815
0.02525 0.1189918 -0.0236117
0.02575 0.1190101 -0.02320699
0.02625 0.1190344 -0.02266738
0.02675 0.1190466 -0.02239756
0.02725 0.1190588 -0.02212776
0.02775 0.1190649 -0.02199285
0.02825 0.119071 -0.02185794
0.02875 0.1190831 -0.02158814
0.02925 0.1190892 -0.02145323
0.02975 0.1190953 -0.02131832
0.03025 0.1191014 -0.02118344
0.03075 0.1191075 -0.02104852
0.03125 0.1191136 -0.02091362
0.03175 0.1191136 -0.02091362
0.03225 0.1191136 -0.02091362
0.03275 0.1191075 -0.02104852
0.03325 0.1191075 -0.02104852
0.03375 0.1190892 -0.02145323
0.03425 0.1190953 -0.02131832
0.03475 0.1190831 -0.02158814
0.03525 0.1190892 -0.02145323
0.03575 0.1190892 -0.02145323
0.03625 0.1190831 -0.02158814
0.03675 0.1190831 -0.02158814
0.03725 0.1190649 -0.02199285
0.03775 0.1190405 -0.02253246
0.03825 0.1190101 -0.02320699
0.03875 0.119004 -0.02334188
0.03925 0.1189979 -0.02347679
0.03975 0.1189674 -0.02415131
0.04025 0.1189492 -0.02455603
0.04075 0.1188883 -0.02590505
0.04125 0.1188822 -0.02603997
0.04175 0.1188335 -0.02711918
0.04225 0.1186812 -0.03049179
0.04275 0.1186812 -0.03049179
-0.041 0.1238486 0.07425311
-0.0405 0.1238716 0.07497111
-0.04 0.1238907 0.07556947
-0.0395 0.1239022 0.07592846
-0.039 0.123906 0.07604814
-0.0385 0.1239098 0.07616781
-0.038 0.1239098 0.07616781
-0.0375 0.1239098 0.07616781
-0.037 0.1239022 0.07592846
-0.0365 0.123906 0.07604814
-0.036 0.123906 0.07604814
-0.034 0.1240016 0.07903986
-0.0335 0.1240208 0.0796382
-0.033 0.1240437 0.08035621
-0.0325 0.1240628 0.08095457
-0.032 0.1240743 0.08131357
-0.0315 0.1240858 0.08167256
-0.031 0.1240896 0.08179224
-0.0305 0.1240934 0.08191189
-0.03 0.1240934 0.08191189
-0.0295 0.1240896 0.08179224
-0.029 0.1240896 0.08179224
-0.0285 0.124082 0.08155289
-0.028 0.1240705 0.08119389
-0.0275 0.124082 0.08155289
-0.0255 0.1241585 0.08394627
-0.025 0.1241852 0.08478396
-0.0245 0.1242005 0.08526263
-0.024 0.124212 0.08562164
-0.0235 0.1242197 0.08586097
-0.023 0.1242197 0.08586097
-0.0225 0.1242235 0.08598064
-0.022 0.1242197 0.08586097
-0.0215 0.1242044 0.08538228
-0.021 0.1241852 0.08478396
-0.0205 0.1241852 0.08478396
-0.018 0.1179161 -0.06455261
-0.0165 0.1179794 -0.06312671
-0.016 0.1179921 -0.06284153
-0.0155 0.1179857 -0.06298411
-0.0125 0.1179288 -0.06426743
-0.012 0.1179541 -0.06369707
-0.0115 0.1179667 -0.0634119
0.0225 0.1196342 -0.0259043
0.023 0.1196704 -0.02509485
0.0235 0.1196884 -0.02469011
0.024 0.1197065 -0.02428538
0.0245 0.1197246 -0.02388065
0.025 0.1197366 -0.02361085
0.0255 0.1197487 -0.02334101
0.026 0.1197667 -0.02293628
0.0265 0.1197908 -0.02239665
0.027 0.1198029 -0.02212684
0.0275 0.1198089 -0.02199192
0.028 0.1198149 -0.02185701
0.0285 0.119821 -0.02172211
0.029 0.119827 -0.02158719
0.0295 0.119833 -0.02145228
0.03 0.119839 -0.02131736
0.0305 0.1198451 -0.02118247
0.031 0.1198511 -0.02104755
0.0315 0.1198571 -0.02091264
0.032 0.1198571 -0.02091264
0.0325 0.1198571 -0.02091264
0.033 0.1198571 -0.02091264
0.0335 0.1198631 -0.02077775
0.034 0.1198692 -0.02064283
0.0345 0.1198631 -0.02077775
0.035 0.119839 -0.02131736
0.0355 0.1198451 -0.02118247
0.036 0.1198451 -0.02118247
0.0365 0.119833 -0.02145228
0.037 0.119827 -0.02158719
0.0375 0.1198089 -0.02199192
0.038 0.1197728 -0.02280137
0.0385 0.1197427 -0.02347593
0.039 0.1197366 -0.02361085
0.0395 0.1197125 -0.02415048
0.04 0.1196945 -0.02455521
0.0405 0.1196161 -0.02630903
0.041 0.1196282 -0.02603922
0.0415 0.1195559 -0.02765812
0.042 0.1194234 -0.03062613
-0.04125 0.1245342 0.07389359
-0.04075 0.1245643 0.07485098
-0.04025 0.1245831 0.07544933
-0.03975 0.1245906 0.07568869
-0.03925 0.1245944 0.07580835
-0.03875 0.1246019 0.0760477
-0.03825 0.1246019 0.0760477
-0.03775 0.1245981 0.07592803
-0.03725 0.1245944 0.07580835
-0.03675 0.1245944 0.07580835
-0.03625 0.1246019 0.0760477
-0.03425 0.1246771 0.07844116
-0.03375 0.1247071 0.07939854
-0.03325 0.1247334 0.08023626
-0.03275 0.1247485 0.08071494
-0.03225 0.1247635 0.08119364
-0.03175 0.124771 0.08143298
-0.03125 0.1247785 0.08167233
-0.03075 0.1247823 0.081792
-0.03025 0.1247785 0.08167233
-0.02975 0.1247748 0.08155265
-0.02925 0.1247748 0.08155265
-0.02875 0.1247748 0.08155265
-0.02825 0.1247597 0.08107397
-0.02775 0.1247673 0.08131331
-0.02575 0.1248311 0.08334775
-0.02525 0.124865 0.08442479
-0.02475 0.1248838 0.08502316
-0.02425 0.1248988 0.08550186
-0.02375 0.1249063 0.08574121
-0.02325 0.1249063 0.08574121
-0.02275 0.1249101 0.08586088
-0.02225 0.1249138 0.08598055
-0.02175 0.1248988 0.08550186
-0.02125 0.12488 0.08490349
-0.02075 0.1248763 0.08478384
-0.01525 0.1186887 -0.06469665
-0.01475 0.1186824 -0.06483924
-0.01425 0.1186824 -0.06483924
-0.01375 0.1187011 -0.06441147
-0.01325 0.1186887 -0.06469665
-0.01275 0.1186949 -0.06455405
-0.01125 0.1187011 -0.06441147
0.02225 0.1203891 -0.02590525
0.02275 0.1204188 -0.02523069
0.02325 0.1204426 -0.02469105
0.02375 0.1204604 -0.02428632
0.02425 0.1204723 -0.0240165
0.02475 0.1204901 -0.02361178
0.02525 0.120502 -0.02334195
0.02575 0.1205139 -0.02307213
0.02625 0.1205317 -0.02266741
0.02675 0.1205435 -0.02239758
0.02725 0.1205495 -0.02226266
0.02775 0.1205614 -0.02199285
0.02825 0.1205673 -0.02185793
0.02875 0.1205792 -0.02158812
0.02925 0.1205851 -0.0214532
0.02975 0.1205911 -0.02131829
0.03025 0.120597 -0.02118339
0.03075 0.1206029 -0.02104848
0.03125 0.1206089 -0.02091356
0.03175 0.1206148 -0.02077867
0.03225 0.1206267 -0.02050884
0.03275 0.1206207 -0.02064376
0.03325 0.1206207 -0.02064376
0.03375 0.1206207 -0.02064376
0.03425 0.1206267 -0.02050884
0.03475 0.1205911 -0.02131829
0.03525 0.1205911 -0.02131829
0.03575 0.1205911 -0.02131829
0.03625 0.1205851 -0.0214532
0.03675 0.1205792 -0.02158812
0.03725 0.1205554 -0.02212777
0.03775 0.1205376 -0.02253249
0.03825 0.1204663 -0.02415142
0.03875 0.1204663 -0.02415142
0.03925 0.1204663 -0.02415142
0.03975 0.1204485 -0.02455615
0.04025 0.1203595 -0.0265798
0.04075 0.1203654 -0.02644489
-0.0415 0.1252276 0.0737734
-0.041 0.1252572 0.07473081
-0.0405 0.1252719 0.07520954
-0.04 0.125283 0.07556856
-0.0395 0.1252867 0.07568824
-0.039 0.1252904 0.07580791
-0.0385 0.1252904 0.07580791
-0.038 0.1252867 0.07568824
-0.0375 0.125283 0.07556856
-0.037 0.125283 0.07556856
-0.0365 0.1252867 0.07568824
-0.034 0.1253864 0.07891952
-0.0335 0.1254122 0.07975724
-0.033 0.125438 0.08059499
-0.0325 0.1254528 0.0810737
-0.032 0.1254602 0.08131307
-0.0315 0.1254639 0.08143273
-0.031 0.1254676 0.08155242
-0.0305 0.1254713 0.08167209
-0.03 0.1254676 0.08155242
-0.0295 0.1254639 0.08143273
-0.029 0.1254639 0.08143273
-0.0285 0.1254528 0.0810737
-0.028 0.1254565 0.08119339
-0.0275 0.1254565 0.08119339
-0.0255 0.1255377 0.08382627
-0.025 0.1255673 0.0847837
-0.0245 0.125582 0.0852624
-0.024 0.1255931 0.08562145
-0.0235 0.1256005 0.08586079
-0.023 0.1255968 0.08574112
-0.0225 0.1256005 0.08586079
-0.022 0.1255894 0.08550176
-0.0215 0.1255783 0.08514273
-0.021 0.1255673 0.0847837
-0.0205 0.1255599 0.08454435
-0.0175 0.1194183 -0.06583886
-0.0165 0.1194306 -0.06555365
-0.016 0.1194552 -0.06498329
-0.0155 0.1194552 -0.06498329
-0.015 0.1194614 -0.06484069
-0.0145 0.1194552 -0.06498329
-0.014 0.1194675 -0.06469809
-0.0125 0.1194737 -0.06455549
0.022 0.1211265 -0.02631092
0.0225 0.1211558 -0.02563638
0.023 0.1211792 -0.02509673
0.0235 0.1211968 -0.02469198
0.024 0.1212143 -0.02428725
0.0245 0.121226 -0.02401744
0.025 0.1212377 -0.02374761
0.0255 0.1212553 -0.02334288
0.026 0.121267 -0.02307307
0.0265 0.1212845 -0.02266834
0.027 0.1212963 -0.0223985
0.0275 0.121308 -0.02212869
0.028 0.1213255 -0.02172396
0.0285 0.1213255 -0.02172396
0.029 0.1213372 -0.02145413
0.0295 0.1213431 -0.02131921
0.03 0.1213489 -0.02118432
0.0305 0.1213548 -0.0210494
0.031 0.1213606 -0.02091449
0.0315 0.1213665 -0.02077959
0.032 0.1213723 -0.02064467
0.0325 0.1213723 -0.02064467
0.033 0.1213723 -0.02064467
0.0335 0.1213723 -0.02064467
0.034 0.1213606 -0.02091449
0.0345 0.1213665 -0.02077959
0.035 0.1213197 -0.02185886
0.0355 0.1213255 -0.02172396
0.036 0.1213197 -0.02185886
0.0365 0.121308 -0.02212869
0.037 0.1212787 -0.02280323
0.0375 0.1212611 -0.02320798
0.038 0.1211558 -0.02563638
0.0385 0.1211909 -0.0248269
-0.04175 0.1259212 0.07365321
-0.04125 0.1259502 0.07461065
-0.04075 0.1259683 0.07520908
-0.04025 0.1259755 0.07544842
-0.03975 0.1259828 0.0756878
-0.03925 0.1259828 0.0756878
-0.03875 0.1259792 0.07556811
-0.03825 0.1259792 0.07556811
-0.03775 0.1259792 0.07556811
-0.03725 0.1259719 0.07532875
-0.03675 0.1259719 0.07532875
-0.03375 0.1260915 0.07927823
-0.03325 0.1261205 0.08023567
-0.03275 0.1261386 0.08083409
-0.03225 0.1261495 0.08119313
-0.03175 0.1261531 0.08131282
-0.03125 0.1261568 0.08143249
-0.03075 0.1261604 0.08155218
-0.03025 0.1261568 0.08143249
-0.02975 0.1261568 0.08143249
-0.02925 0.1261531 0.08131282
-0.02875 0.1261495 0.08119313
-0.02825 0.1261459 0.08107345
-0.02775 0.1261568 0.08143249
-0.02525 0.1262438 0.08430485
-0.02475 0.1262691 0.08514261
-0.02425 0.12628 0.08550167
-0.02375 0.1262909 0.0858607
-0.02325 0.1262945 0.08598039
-0.02275 0.1262909 0.0858607
-0.02225 0.1262873 0.08574101
-0.02175 0.1262728 0.0852623
-0.02125 0.1262546 0.0846639
-0.02075 0.1262583 0.08478358
-0.01775 0.1201857 -0.0661255
-0.01725 0.1201918 -0.06598292
-0.01675 0.1201918 -0.06598292
-0.01625 0.12021 -0.06555511
-0.01575 0.1202282 -0.06512733
-0.01525 0.1202282 -0.06512733
0.02125 0.1218183 -0.02779589
0.02175 0.1218413 -0.02725624
0.02225 0.1218817 -0.02631187
0.02275 0.1219105 -0.02563732
0.02325 0.1219394 -0.02496276
0.02375 0.1219567 -0.02455803
0.02425 0.1219682 -0.02428819
0.02475 0.1219798 -0.02401838
0.02525 0.1219913 -0.02374854
0.02575 0.1220086 -0.02334381
0.02625 0.1220259 -0.02293908
0.02675 0.1220374 -0.02266927
0.02725 0.122049 -0.02239943
0.02775 0.122072 -0.02185979
0.02825 0.1220836 -0.02158997
0.02875 0.1220893 -0.02145505
0.02925 0.1220951 -0.02132013
0.02975 0.1221009 -0.02118524
0.03025 0.1221009 -0.02118524
0.03075 0.1221009 -0.02118524
0.03125 0.1221066 -0.02105033
0.03175 0.1221124 -0.0209154
0.03225 0.1221066 -0.02105033
0.03275 0.1221066 -0.02105033
0.03325 0.1221066 -0.02105033
0.03375 0.1220836 -0.02158997
0.03425 0.1220086 -0.02334381
0.03475 0.1220144 -0.02320892
0.03525 0.1219682 -0.02428819
0.03575 0.1219336 -0.02509768
0.03625 0.1219278 -0.02523257
0.03675 0.1219221 -0.02536749
0.03725 0.1218932 -0.02604205
0.03775 0.121899 -0.02590714
0.03825 0.1218644 -0.0267166
0.03875 0.1218183 -0.02779589
0.03925 0.1217721 -0.02887519
0.03975 0.1216683 -0.0313036
0.04025 0.1216452 -0.03184325
-0.0415 0.1266433 0.07449049
-0.041 0.1266611 0.0750889
-0.0405 0.1266718 0.07544798
-0.04 0.1266753 0.07556766
-0.0395 0.1266753 0.07556766
-0.039 0.1266753 0.07556766
-0.0385 0.1266753 0.07556766
-0.038 0.1266646 0.0752086
-0.0375 0.1266611 0.0750889
-0.037 0.1266611 0.0750889
-0.0335 0.1268034 0.07987635
-0.033 0.1268247 0.08059444
-0.0325 0.1268354 0.08095352
-0.032 0.1268425 0.08119288
-0.0315 0.1268461 0.08131257
-0.031 0.1268497 0.08143224
-0.0305 0.1268497 0.08143224
-0.03 0.1268461 0.08131257
-0.0295 0.1268497 0.08143224
-0.029 0.1268425 0.08119288
-0.0285 0.1268354 0.08095352
-0.028 0.1268425 0.08119288
-0.0275 0.1268354 0.08095352
-0.025 0.1269493 0.08478345
-0.0245 0.1269706 0.08550157
-0.024 0.1269813 0.08586061
-0.0235 0.1269848 0.0859803
-0.023 0.1269848 0.0859803
-0.0225 0.1269813 0.08586061
-0.022 0.1269706 0.08550157
-0.0215 0.1269564 0.08502281
-0.021 0.1269493 0.08478345
-0.016 0.1209714 -0.06598439
0.0215 0.1225801 -0.02766193
0.0225 0.1226426 -0.02617789
0.023 0.1226653 -0.02563827
0.0235 0.122688 -0.02509861
0.024 0.1227108 -0.02455897
0.0245 0.1227221 -0.02428913
0.025 0.1227335 -0.02401931
0.0255 0.1227449 -0.02374948
0.026 0.1227676 -0.02320985
0.0265 0.1227789 -0.02294001
0.027 0.122796 -0.02253528
0.0275 0.122813 -0.02213055
0.028 0.1228244 -0.02186071
0.0285 0.1228358 -0.0215909
0.029 0.1228414 -0.02145597
0.0295 0.1228471 -0.02132106
0.03 0.1228414 -0.02145597
0.0305 0.1228244 -0.02186071
0.031 0.1228244 -0.02186071
0.0315 0.1228358 -0.0215909
0.032 0.1227562 -0.02347967
0.0325 0.1227676 -0.02320985
0.033 0.1227676 -0.02320985
0.0335 0.1227505 -0.02361458
0.034 0.1227449 -0.02374948
0.0345 0.1227335 -0.02401931
0.035 0.1227221 -0.02428913
0.0355 0.1227164 -0.02442405
0.036 0.1227051 -0.02469386
0.0365 0.122688 -0.02509861
0.037 0.1226823 -0.02523351
0.0375 0.1226539 -0.02590808
0.038 0.1226539 -0.02590808
0.0385 0.1225914 -0.02739211
0.039 0.122563 -0.02806668
0.0395 0.1225289 -0.02887614
0.04 0.1224608 -0.0304951
-0.04175 0.1273331 0.07425062
-0.04125 0.127354 0.07496876
-0.04075 0.1273645 0.07532784
-0.04025 0.127368 0.07544751
-0.03975 0.1273715 0.07556722
-0.03925 0.1273715 0.07556722
-0.03875 0.127368 0.07544751
-0.03825 0.127354 0.07496876
-0.03775 0.1273575 0.07508844
-0.03725 0.127347 0.07472938
-0.03375 0.1274797 0.07927759
-0.03325 0.1275076 0.08023511
-0.03275 0.1275251 0.08083355
-0.03225 0.1275321 0.08107294
-0.03175 0.1275355 0.08119263
-0.03125 0.127539 0.08131233
-0.03075 0.1275425 0.081432
-0.03025 0.127539 0.08131233
-0.02975 0.127539 0.08131233
-0.02925 0.127539 0.08131233
-0.02875 0.1275286 0.08095326
-0.02825 0.1275286 0.08095326
-0.02775 0.1275251 0.08083355
-0.02475 0.1276508 0.08514239
-0.02425 0.1276647 0.08562115
-0.02375 0.1276752 0.08598022
-0.02325 0.1276717 0.08586052
-0.02275 0.1276717 0.08586052
-0.02225 0.1276612 0.08550146
-0.02175 0.1276473 0.08502269
-0.02125 0.1276368 0.08466363
0.02175 0.1233249 -0.02793272
0.02275 0.1233865 -0.02644868
0.02325 0.1234145 -0.02577411
0.02375 0.1234424 -0.02509956
0.02425 0.123448 -0.02496464
0.02475 0.1234648 -0.0245599
0.02525 0.1234872 -0.02402025
0.02575 0.123504 -0.02361552
0.02625 0.1235096 -0.0234806
0.02675 0.1235208 -0.02321078
0.02725 0.123532 -0.02294094
0.02775 0.1235544 -0.02240129
0.02825 0.12356 -0.02226637
0.02875 0.1234648 -0.0245599
0.02925 0.123476 -0.02429007
0.02975 0.1234872 -0.02402025
0.03025 0.123504 -0.02361552
0.03075 0.1235096 -0.0234806
0.03125 0.123504 -0.02361552
0.03175 0.123504 -0.02361552
0.03225 0.1235096 -0.0234806
0.03275 0.123504 -0.02361552
0.03325 0.1234984 -0.02375041
0.03375 0.1234984 -0.02375041
0.03425 0.1234872 -0.02402025
0.03475 0.1234816 -0.02415517
0.03525 0.123476 -0.02429007
0.03575 0.1234648 -0.0245599
0.03625 0.123448 -0.02496464
0.03675 0.1234368 -0.02523445
0.03725 0.1234201 -0.02563921
0.03775 0.1234033 -0.02604394
0.03825 0.1233529 -0.02725815
0.03875 0.1233305 -0.0277978
0.03925 0.1232857 -0.02887711
0.03975 0.1232354 -0.03009131
0.04025 0.1231346 -0.03251974
-0.042 0.1280128 0.07365164
-0.0415 0.1280437 0.07472889
-0.041 0.1280573 0.07520768
-0.0405 0.1280642 0.07544707
-0.04 0.1280642 0.07544707
-0.0395 0.1280642 0.07544707
-0.039 0.1280573 0.07520768
-0.0385 0.1280471 0.07484859
-0.038 0.1280471 0.07484859
-0.0335 0.1281875 0.07975604
-0.033 0.1282114 0.0805939
-0.0325 0.1282217 0.080953
-0.032 0.1282286 0.08119237
-0.0315 0.128232 0.08131208
-0.031 0.128232 0.08131208
-0.0305 0.128232 0.08131208
-0.03 0.1282286 0.08119237
-0.0295 0.1282286 0.08119237
-0.029 0.1282251 0.08107267
-0.0285 0.1282114 0.0805939
-0.028 0.1282114 0.0805939
-0.025 0.128321 0.08442409
-0.0245 0.1283484 0.08538166
-0.024 0.1283587 0.08574075
-0.0235 0.1283621 0.08586043
-0.023 0.1283587 0.08574075
-0.0225 0.1283552 0.08562106
-0.022 0.128345 0.08526197
-0.0215 0.1283244 0.08454381
0.0225 0.1240922 -0.02766383
0.023 0.1241087 -0.0272591
0.025 0.1242189 -0.02456084
0.0255 0.1242409 -0.02402119
0.026 0.1242409 -0.02402119
0.0265 0.1242244 -0.02442592
0.027 0.1241693 -0.02577505
0.0275 0.1241803 -0.02550523
0.028 0.1241969 -0.0251005
0.0285 0.1242189 -0.02456084
0.029 0.1242244 -0.02442592
0.0295 0.1242354 -0.0241561
0.03 0.1242465 -0.02388627
0.0305 0.1242575 -0.02361645
0.031 0.1242575 -0.02361645
0.0315 0.124252 -0.02375135
0.032 0.1242575 -0.02361645
0.0325 0.124252 -0.02375135
0.033 0.1242409 -0.02402119
0.0335 0.124252 -0.02375135
0.034 0.1242465 -0.02388627
0.0345 0.1242299 -0.024291
0.035 0.1242244 -0.02442592
0.0355 0.1242244 -0.02442592
0.036 0.1241969 -0.0251005
0.0365 0.1241914 -0.02523539
0.037 0.1241748 -0.02564015
0.0375 0.1241418 -0.02644962
0.038 0.1241197 -0.02698928
0.0385 0.1240977 -0.02752893
0.039 0.124037 -0.02901299
0.0395 0.1239874 -0.03022719
0.04 0.1239599 -0.03090176
0.0405 0.1239103 -0.03211597
0.041 0.1238001 -0.03481425
0.0415 0.1237725 -0.0354888
-0.04175 0.1287201 0.07401024
-0.04125 0.128747 0.0749678
-0.04075 0.1287571 0.07532692
-0.04025 0.1287604 0.07544661
-0.03975 0.1287537 0.07520722
-0.03925 0.1287504 0.0750875
-0.03875 0.128747 0.0749678
-0.03825 0.1287369 0.07460871
-0.03375 0.1288712 0.07939664
-0.03325 0.1288947 0.08023453
-0.03275 0.1289081 0.08071332
-0.03225 0.1289182 0.08107242
-0.03175 0.1289216 0.08119212
-0.03125 0.1289249 0.08131182
-0.03075 0.1289249 0.08131182
-0.03025 0.1289249 0.08131182
-0.02975 0.1289216 0.08119212
-0.02925 0.1289182 0.08107242
-0.02875 0.1289048 0.08059362
-0.02825 0.1288947 0.08023453
-0.02475 0.1290189 0.08466338
-0.02425 0.1290391 0.08538155
-0.02375 0.1290458 0.08562095
-0.02325 0.1290458 0.08562095
-0.02275 0.1290391 0.08538155
-0.02225 0.1290357 0.08526187
0.02525 0.1248428 -0.02779971
0.02575 0.1248862 -0.02672039
0.02625 0.124897 -0.02645057
0.02675 0.1249133 -0.02604583
0.02725 0.1249296 -0.0256411
0.02775 0.1249404 -0.02537125
0.02825 0.1249513 -0.02510144
0.02875 0.1249621 -0.0248316
0.02925 0.124973 -0.02456178
0.02975 0.1249838 -0.02429194
0.03025 0.1249947 -0.02402212
0.03075 0.1250001 -0.0238872
0.03125 0.1249892 -0.02415704
0.03175 0.1250001 -0.0238872
0.03225 0.1250001 -0.0238872
0.03275 0.1249892 -0.02415704
0.03325 0.1249892 -0.02415704
0.03375 0.1249838 -0.02429194
0.03425 0.124973 -0.02456178
0.03475 0.1249675 -0.02469668
0.03525 0.124973 -0.02456178
0.03575 0.1249513 -0.02510144
0.03625 0.1249404 -0.02537125
0.03675 0.1249296 -0.0256411
0.03725 0.1249024 -0.02631565
0.03775 0.1248807 -0.02685531
0.03825 0.1248482 -0.02766478
0.03875 0.1248102 -0.02860918
0.03925 0.1247777 -0.02941868
0.03975 0.1247505 -0.03009323
0.04025 0.1246854 -0.03171221
0.04075 0.1245552 -0.03495013
0.04125 0.1245715 -0.0345454
0.04175 0.1245606 -0.03481524
-0.0415 0.1294237 0.07424913
-0.041 0.1294402 0.07484764
-0.0405 0.1294501 0.07520676
-0.04 0.1294468 0.07508704
-0.0395 0.1294468 0.07508704
-0.039 0.1294369 0.07472794
-0.0335 0.1295784 0.07987514
-0.033 0.1295948 0.08047366
-0.0325 0.129608 0.08095248
-0.032 0.1296146 0.08119187
-0.0315 0.1296179 0.08131157
-0.031 0.1296179 0.08131157
-0.0305 0.1296179 0.08131157
-0.03 0.1296146 0.08119187
-0.0295 0.1296113 0.08107217
-0.029 0.1296014 0.08071305
-0.0285 0.1295751 0.07975543
-0.028 0.1295586 0.07915694
-0.024 0.1297199 0.08502235
-0.0235 0.1297232 0.08514205
-0.023 0.1297232 0.08514205
0.0245 0.1255615 -0.02874506
0.025 0.1255989 -0.02780066
0.0255 0.1256202 -0.027261
0.026 0.1256363 -0.02685626
0.0265 0.1256576 -0.0263166
0.027 0.1256683 -0.02604678
0.0275 0.1256843 -0.02564204
0.028 0.1256897 -0.02550712
0.0285 0.1257057 -0.02510238
0.029 0.125711 -0.02496746
0.0295 0.1257217 -0.02469762
0.03 0.1257324 -0.0244278
0.0305 0.1257377 -0.02429288
0.031 0.1257377 -0.02429288
0.0315 0.1257377 -0.02429288
0.032 0.1257484 -0.02402306
0.0325 0.1257377 -0.02429288
0.033 0.1257324 -0.0244278
0.0335 0.125727 -0.02456272
0.034 0.1257217 -0.02469762
0.0345 0.1257217 -0.02469762
0.035 0.1257164 -0.02483254
0.0355 0.1257004 -0.02523728
0.036 0.1256897 -0.02550712
0.0365 0.125679 -0.02577694
0.037 0.1256576 -0.0263166
0.0375 0.1256363 -0.02685626
0.038 0.1256096 -0.02753084
0.0385 0.1255775 -0.02834032
0.039 0.1255508 -0.0290149
0.0395 0.1255241 -0.02968946
0.04 0.1254761 -0.0309037
0.0405 0.1254387 -0.0318481
0.041 0.125412 -0.03252266
0.0415 0.1252999 -0.03535588
-0.04075 0.1301335 0.07472746
-0.04025 0.1301367 0.07484716
-0.03375 0.130256 0.07927631
-0.03325 0.1302818 0.08023396
-0.03275 0.1302979 0.0808325
-0.03225 0.1303044 0.0810719
-0.03175 0.1303076 0.08119161
-0.03125 0.1303108 0.08131133
-0.03075 0.1303108 0.08131133
-0.03025 0.1303076 0.08119161
-0.02975 0.1303011 0.08095221
-0.02925 0.1302915 0.08059306
-0.02875 0.1302657 0.07963543
-0.02825 0.1302528 0.07915661
0.02425 0.1263025 -0.02915076
0.02475 0.1263393 -0.02820636
0.02525 0.1263603 -0.02766669
0.02575 0.1263813 -0.02712703
0.02625 0.1263918 -0.02685721
0.02675 0.1264076 -0.02645247
0.02725 0.1264233 -0.02604772
0.02775 0.1264338 -0.02577788
0.02825 0.1264444 -0.02550806
0.02875 0.1264496 -0.02537314
0.02925 0.1264654 -0.0249684
0.02975 0.1264706 -0.02483348
0.03025 0.1264759 -0.02469856
0.03075 0.1264811 -0.02456366
0.03125 0.1264811 -0.02456366
0.03175 0.1264864 -0.02442874
0.03225 0.1264811 -0.02456366
0.03275 0.1264759 -0.02469856
0.03325 0.1264654 -0.0249684
0.03375 0.1264654 -0.0249684
0.03425 0.1264601 -0.02510332
0.03475 0.1264496 -0.02537314
0.03525 0.1264496 -0.02537314
0.03575 0.1264338 -0.02577788
0.03625 0.1264286 -0.0259128
0.03675 0.1264076 -0.02645247
0.03725 0.1263918 -0.02685721
0.03775 0.1263708 -0.02739687
0.03825 0.1263445 -0.02807145
0.03875 0.1263288 -0.0284762
0.03925 0.1262815 -0.02969042
0.03975 0.1262499 -0.03049992
0.04025 0.1262184 -0.03130941
0.04075 0.1262027 -0.03171415
0.04125 0.1261869 -0.03211889
0.04225 0.1260293 -0.03616635
0.04275 0.1260345 -0.03603143
-0.0335 0.1309596 0.07963513
-0.033 0.1309817 0.0804731
-0.0325 0.1309943 0.08095194
-0.032 0.1309974 0.08107165
-0.0315 0.1310006 0.08119136
-0.031 0.1310006 0.08119136
-0.0305 0.1310038 0.08131108
-0.03 0.1309911 0.08083223
-0.0295 0.1309785 0.08035338
-0.029 0.1309627 0.07975481
0.024 0.127044 -0.02955646
0.0245 0.1270698 -0.02888189
0.025 0.1270957 -0.02820731
0.0255 0.1271215 -0.02753274
0.026 0.1271318 -0.0272629
0.0265 0.1271473 -0.02685816
0.027 0.1271628 -0.02645341
0.0275 0.127168 -0.02631849
0.028 0.1271835 -0.02591375
0.0285 0.1271887 -0.02577883
0.029 0.1272042 -0.02537408
0.0295 0.1272094 -0.02523916
0.03 0.1272145 -0.02510426
0.0305 0.1272197 -0.02496934
0.031 0.1272249 -0.02483442
0.0315 0.1272249 -0.02483442
0.032 0.1272249 -0.02483442
0.0325 0.1272197 -0.02496934
0.033 0.1272197 -0.02496934
0.0335 0.1272145 -0.02510426
0.034 0.1272042 -0.02537408
0.0345 0.127199 -0.025509
0.035 0.1271939 -0.02564393
0.0355 0.1271887 -0.02577883
0.036 0.1271835 -0.02591375
0.0365 0.127168 -0.02631849
0.037 0.1271422 -0.02699308
0.0375 0.1271267 -0.02739782
0.038 0.1270957 -0.02820731
0.0385 0.1270853 -0.02847715
0.039 0.1270698 -0.02888189
0.0395 0.1270285 -0.02996122
0.04 0.1270026 -0.03063579
0.0405 0.1269768 -0.03131038
0.041 0.1269561 -0.03185004
0.0415 0.1269354 -0.0323897
0.0425 0.1267959 -0.03603242
0.043 0.126801 -0.0358975
-0.03375 0.1316442 0.07927565
-0.03325 0.1316689 0.08023338
-0.03275 0.1316813 0.08071224
-0.03225 0.1316874 0.08095169
-0.03175 0.1316905 0.08107139
-0.03125 0.1316936 0.08119111
-0.03075 0.1316936 0.08119111
-0.03025 0.1316843 0.08083196
-0.02975 0.1316627 0.07999396
-0.02925 0.1316596 0.07987425
0.02275 0.1277555 -0.03077168
0.02325 0.1277707 -0.03036693
0.02375 0.1278012 -0.02955742
0.02425 0.1278215 -0.02901778
0.02475 0.1278419 -0.02847811
0.02525 0.1278571 -0.02807336
0.02575 0.1278775 -0.0275337
0.02625 0.1278876 -0.02726385
0.02675 0.1279029 -0.0268591
0.02725 0.127913 -0.02658928
0.02775 0.1279232 -0.02631944
0.02825 0.1279384 -0.02591469
0.02875 0.1279486 -0.02564487
0.02925 0.1279537 -0.02550995
0.02975 0.1279588 -0.02537502
0.03025 0.1279639 -0.0252401
0.03075 0.127969 -0.0251052
0.03125 0.127969 -0.0251052
0.03175 0.127969 -0.0251052
0.03225 0.127969 -0.0251052
0.03275 0.127969 -0.0251052
0.03325 0.1279588 -0.02537502
0.03375 0.1279486 -0.02564487
0.03425 0.1279537 -0.02550995
0.03475 0.1279486 -0.02564487
0.03525 0.1279384 -0.02591469
0.03575 0.1279283 -0.02618451
0.03625 0.1279181 -0.02645436
0.03675 0.1279029 -0.0268591
0.03725 0.1278876 -0.02726385
0.03775 0.1278673 -0.02780352
0.03825 0.127847 -0.02834319
0.03875 0.1278419 -0.02847811
0.03925 0.1278215 -0.02901778
0.03975 0.1277961 -0.02969234
0.04025 0.1277453 -0.0310415
0.04075 0.1277199 -0.03171609
0.04125 0.1277046 -0.03212084
0.04175 0.1276843 -0.0326605
0.04225 0.1276233 -0.0342795
0.04275 0.1275521 -0.03616833
-0.0335 0.1323504 0.07975422
-0.033 0.1323685 0.08047254
-0.0325 0.1323776 0.08083169
-0.032 0.1323806 0.08095142
-0.0315 0.1323836 0.08107114
-0.031 0.1323836 0.08107114
-0.0305 0.1323806 0.08095142
-0.03 0.1323564 0.07999367
-0.0295 0.1323413 0.07939506
0.023 0.1285484 -0.02982823
0.0235 0.1285784 -0.02901873
0.024 0.1285934 -0.02861396
0.0245 0.1286084 -0.02820922
0.025 0.1286084 -0.02820922
0.0255 0.1286284 -0.02766955
0.026 0.1286434 -0.0272648
0.0265 0.1286584 -0.02686005
0.027 0.1286684 -0.02659023
0.0275 0.1286734 -0.02645531
0.028 0.1286834 -0.02618546
0.0285 0.1286934 -0.02591564
0.029 0.1287034 -0.02564581
0.0295 0.1287084 -0.02551089
0.03 0.1287134 -0.02537597
0.0305 0.1287134 -0.02537597
0.031 0.1287184 -0.02524104
0.0315 0.1287134 -0.02537597
0.032 0.1287184 -0.02524104
0.0325 0.1287134 -0.02537597
0.033 0.1287084 -0.02551089
0.0335 0.1287084 -0.02551089
0.034 0.1287034 -0.02564581
0.0345 0.1286934 -0.02591564
0.035 0.1286884 -0.02605056
0.0355 0.1286834 -0.02618546
0.036 0.1286784 -0.02632038
0.0365 0.1286734 -0.02645531
0.037 0.1286584 -0.02686005
0.0375 0.1286434 -0.0272648
0.038 0.1286184 -0.02793939
0.0385 0.1286034 -0.02834414
0.039 0.1285884 -0.02874889
0.0395 0.1285734 -0.02915363
0.04 0.1285584 -0.02955838
0.0405 0.1285085 -0.03090756
0.041 0.1284685 -0.03198688
0.0415 0.1284635 -0.03212181
0.042 0.1284585 -0.03225673
0.043 0.1283186 -0.0360344
-0.03325 0.1330471 0.07987365
-0.03275 0.133059 0.08035254
-0.03225 0.1330678 0.08071171
-0.03175 0.1330708 0.08083142
-0.03125 0.1330708 0.08083142
-0.03075 0.1330678 0.08071171
0.02325 0.1293402 -0.02888477
0.02375 0.1293648 -0.02821017
0.02425 0.1293795 -0.02780543
0.02475 0.1293943 -0.02740067
0.02525 0.1294041 -0.02713083
0.02575 0.1294041 -0.02713083
0.02625 0.1294188 -0.02672608
0.02675 0.1294287 -0.02645626
0.02725 0.1294385 -0.02618641
0.02775 0.1294434 -0.0260515
0.02825 0.1294483 -0.02591658
0.02875 0.1294581 -0.02564676
0.02925 0.129463 -0.02551183
0.02975 0.129463 -0.02551183
0.03025 0.129468 -0.02537691
0.03075 0.129468 -0.02537691
0.03125 0.129468 -0.02537691
0.03175 0.129468 -0.02537691
0.03225 0.1294729 -0.02524199
0.03275 0.129468 -0.02537691
0.03325 0.129463 -0.02551183
0.03375 0.129463 -0.02551183
0.03425 0.1294532 -0.02578166
0.03475 0.1294434 -0.0260515
0.03525 0.1294434 -0.0260515
0.03575 0.1294385 -0.02618641
0.03625 0.1294385 -0.02618641
0.03675 0.1294385 -0.02618641
0.03725 0.1294139 -0.026861
0.03775 0.1293992 -0.02726575
0.03825 0.1293746 -0.02794035
0.03875 0.1293648 -0.02821017
0.03925 0.1293501 -0.02861492
0.03975 0.1293452 -0.02874984
0.04025 0.1293206 -0.02942444
0.04075 0.1293108 -0.02969427
0.04125 0.1292174 -0.0322577
0.04175 0.1292224 -0.03212278
0.04225 0.1292174 -0.0322577
0.04275 0.1291241 -0.03482114
-0.033 0.1337351 0.07963389
-0.0325 0.1337495 0.08023253
-0.032 0.1337582 0.08059169
-0.0315 0.1337553 0.08047198
-0.031 0.1337495 0.08023253
0.023 0.1300874 -0.02915555
0.0235 0.1301212 -0.02821113
0.024 0.1301357 -0.02780638
0.0245 0.1301501 -0.02740163
0.025 0.1301598 -0.02713178
0.0255 0.1301743 -0.02672702
0.026 0.1301839 -0.0264572
0.0265 0.1301936 -0.02618735
0.027 0.1301984 -0.02605245
0.0275 0.1302081 -0.0257826
0.028 0.1302129 -0.0256477
0.0285 0.1302177 -0.02551277
0.029 0.1302225 -0.02537785
0.0295 0.1302322 -0.02510802
0.03 0.1302322 -0.02510802
0.0305 0.1302274 -0.02524292
0.031 0.1302322 -0.02510802
0.0315 0.1302322 -0.02510802
0.032 0.1302322 -0.02510802
