-0.00925 0.05695754 0.008874975
-0.00675 0.05645337 0.003630243
-0.00625 0.05654878 0.00457529
-0.00575 0.05658967 0.004980341
-0.00525 0.05663056 0.005385354
-0.00475 0.05668508 0.005925387
-0.00425 0.05672597 0.006330408
-0.00375 0.05671234 0.006195396
-0.00325 0.05645337 0.003630243
-0.00275 0.05652152 0.004305288
-0.00225 0.05657604 0.004845321
-0.00175 0.05658967 0.004980341
-0.00125 0.05657604 0.004845321
-0.00075 0.05661693 0.005250342
-0.00025 0.05664419 0.005520344
0.00025 0.05652152 0.004305288
0.00075 0.05654878 0.00457529
0.00125 0.05657604 0.004845321
0.00175 0.05657604 0.004845321
0.00225 0.05657604 0.004845321
0.00275 0.05658967 0.004980341
0.00325 0.05657604 0.004845321
0.00375 0.05657604 0.004845321
0.00425 0.05656241 0.004710309
0.00575 0.05626255 0.001740135
0.00625 0.0563307 0.00241518
0.00675 0.0563307 0.00241518
0.00725 0.05631706 0.002280168
0.00775 0.05634433 0.002550192
0.00825 0.05635796 0.002685189
0.00875 0.05637159 0.002820201
0.00925 0.05637159 0.002820201
0.00975 0.05638522 0.002955213
0.01025 0.05638522 0.002955213
0.01075 0.05639885 0.003090203
0.01125 0.05639885 0.003090203
0.01175 0.05637159 0.002820201
0.01225 0.05638522 0.002955213
0.01275 0.05639885 0.003090203
0.01325 0.05638522 0.002955213
0.01375 0.05638522 0.002955213
0.01425 0.05639885 0.003090203
0.01475 0.05639885 0.003090203
0.01525 0.05639885 0.003090203
0.01575 0.05639885 0.003090203
0.01625 0.05639885 0.003090203
0.01675 0.05638522 0.002955213
0.01725 0.05635796 0.002685189
0.01775 0.05634433 0.002550192
0.01825 0.05630343 0.002145149
0.01875 0.05622166 0.001335114
0.01925 0.05596268 -0.001230039
0.01975 0.05604446 -0.0004199743
0.02025 0.05607172 -0.0001499727
0.02075 0.05607172 -0.0001499727
0.02125 0.05607172 -0.0001499727
0.02175 0.05604446 -0.0004199743
0.02225 0.05604446 -0.0004199743
0.02275 0.05604446 -0.0004199743
0.02325 0.05604446 -0.0004199743
0.02375 0.05603084 -0.0005549937
0.02425 0.05603084 -0.0005549937
0.02475 0.05603084 -0.0005549937
0.02575 0.05619439 0.001065105
0.02625 0.05623529 0.001470126
0.02675 0.05624891 0.001605123
0.02725 0.05628981 0.002010159
0.02775 0.05630343 0.002145149
0.02825 0.05631706 0.002280168
0.02875 0.0563307 0.00241518
0.02925 0.0563307 0.00241518
0.02975 0.0563307 0.00241518
0.03025 0.05627618 0.001875147
0.03075 0.05623529 0.001470126
0.03125 0.05623529 0.001470126
0.03175 0.05624891 0.001605123
0.03225 0.05627618 0.001875147
0.03275 0.05630343 0.002145149
0.03325 0.05626255 0.001740135
0.03375 0.05626255 0.001740135
0.03425 0.05627618 0.001875147
0.03475 0.05624891 0.001605123
0.03525 0.05620803 0.001200102
0.03575 0.05620803 0.001200102
0.03625 0.05619439 0.001065105
0.03675 0.05619439 0.001065105
0.03725 0.05618076 0.0009300932
0.03775 0.05612624 0.0003900602
0.03825 0.05612624 0.0003900602
0.03875 0.05611261 0.0002550483
0.03925 0.05611261 0.0002550483
0.03975 0.05608536 -1.496077E-05
0.04025 0.05607172 -0.0001499727
0.04075 0.05604446 -0.0004199743
0.04125 0.05603084 -0.0005549937
0.04175 0.05601721 -0.0006900057
0.04225 0.05598994 -0.0009600148
0.04275 0.05596268 -0.001230039
0.04325 0.05594905 -0.001365036
0.04375 0.05592179 -0.00163506
0.04425 0.0558809 -0.002040081
0.04475 0.05584001 -0.002445102
0.04525 0.05571734 -0.00366018
0.04575 0.05571734 -0.00366018
0.04625 0.05571734 -0.00366018
0.04675 0.05570371 -0.003795177
0.04725 0.05570371 -0.003795177
0.04775 0.05569008 -0.003930189
0.04825 0.05562193 -0.004605234
0.04875 0.0556083 -0.004740253
0.04925 0.05558104 -0.005010255
0.04975 0.05551289 -0.0056853
0.05025 0.055472 -0.006090321
0.05075 0.05544474 -0.00636033
0.05125 0.05539022 -0.006900363
0.05175 0.05534933 -0.007305384
0.05225 0.05532207 -0.007575408
0.05275 0.05528118 -0.007980429
0.05325 0.05526755 -0.008115448
0.05375 0.05521303 -0.008655451
0.05425 0.05515851 -0.009195492
0.05475 0.05510399 -0.009735525
0.05525 0.05503584 -0.01041057
0.05575 0.05484501 -0.01230068
0.05625 0.05488591 -0.01189566
0.05675 0.05488591 -0.01189566
0.05725 0.05487227 -0.01203067
0.05775 0.05484501 -0.01230068
0.05825 0.05483139 -0.01243569
0.05875 0.05464056 -0.0143258
0.05925 0.05462693 -0.01446081
0.05975 0.05458604 -0.01486583
0.06025 0.05453152 -0.01540586
0.06075 0.05450426 -0.01567587
0.06125 0.05419077 -0.01878106
0.06175 0.05425892 -0.01810601
0.06225 0.05423166 -0.01837602
0.06275 0.05412262 -0.01945609
-0.08750001 0.05872181 0.02054109
-0.087 0.05876753 0.02104842
-0.0865 0.05877896 0.02117524
-0.086 0.05879039 0.02130207
-0.0855 0.05882467 0.02168257
-0.085 0.05885896 0.02206305
-0.08450001 0.05885896 0.02206305
-0.08400001 0.0587561 0.02092159
-0.08350001 0.05876753 0.02104842
-0.083 0.05876753 0.02104842
-0.0825 0.05868753 0.0201606
-0.082 0.05865324 0.01978009
-0.0815 0.05865324 0.01978009
-0.081 0.05861895 0.01939961
-0.08050001 0.05856181 0.01876546
-0.08000001 0.05850466 0.01813129
-0.0795 0.05850466 0.01813129
-0.079 0.05847038 0.0177508
-0.0785 0.05848181 0.01787764
-0.0775 0.05810465 0.0136922
-0.075 0.05805893 0.01318488
-0.0745 0.05811608 0.01381902
-0.074 0.05813894 0.01407269
-0.0735 0.05815037 0.01419953
-0.07300001 0.05813894 0.01407269
-0.07250001 0.05815037 0.01419953
-0.072 0.0581618 0.01432635
-0.0715 0.05812751 0.01394586
-0.071 0.05815037 0.01419953
-0.0705 0.0581618 0.01432635
-0.07 0.05815037 0.01419953
-0.06950001 0.0581618 0.01432635
-0.06900001 0.05815037 0.01419953
-0.0685 0.05811608 0.01381902
-0.068 0.05805893 0.01318488
-0.0675 0.05807036 0.01331169
-0.067 0.05809322 0.01356537
-0.0665 0.05807036 0.01331169
-0.066 0.05807036 0.01331169
-0.06550001 0.0580475 0.01305804
-0.06500001 0.05802465 0.01280438
-0.0645 0.05800179 0.01255071
-0.064 0.0579675 0.01217023
-0.0635 0.05797893 0.01229706
-0.063 0.05794464 0.01191657
-0.0625 0.05795607 0.01204339
-0.062 0.05793322 0.01178973
-0.0615 0.05784179 0.01077507
-0.061 0.05785321 0.01090191
-0.0605 0.05783036 0.01064824
-0.06 0.05779607 0.01026774
-0.0595 0.05773893 0.009633601
-0.059 0.05775035 0.009760417
-0.0585 0.05767035 0.008872606
-0.058 0.05768178 0.008999437
-0.0575 0.05762463 0.008365273
-0.057 0.05757892 0.007857949
-0.0565 0.05756749 0.007731125
-0.056 0.0575332 0.007350639
-0.0555 0.05739912 0.005922824
-0.055 0.05742616 0.006192818
-0.0545 0.0573856 0.005787827
-0.054 0.05727745 0.004707843
-0.0535 0.05714226 0.003357872
-0.053 0.05712874 0.003222868
-0.0525 0.05695299 0.001467906
-0.052 0.05696651 0.001602888
-0.0515 0.05680428 -1.706928E-05
-0.051 0.05661501 -0.001907036
-0.0505 0.05665556 -0.001502044
-0.05 0.05662853 -0.001772046
-0.0495 0.05661501 -0.001907036
-0.049 0.05660149 -0.002042033
-0.0485 0.05657445 -0.002312042
-0.048 0.05654741 -0.002582029
-0.0475 0.05652037 -0.002852008
-0.047 0.05649333 -0.003122024
-0.0465 0.05650685 -0.00298702
-0.046 0.05645277 -0.003527008
-0.0455 0.0564663 -0.003392003
-0.045 0.05650685 -0.00298702
-0.0445 0.05649333 -0.003122024
-0.044 0.05650685 -0.00298702
-0.0435 0.05650685 -0.00298702
-0.043 0.05650685 -0.00298702
-0.0425 0.05649333 -0.003122024
-0.042 0.05649333 -0.003122024
-0.0415 0.05649333 -0.003122024
-0.041 0.05650685 -0.00298702
-0.0405 0.05650685 -0.00298702
-0.04 0.05650685 -0.00298702
-0.0395 0.05650685 -0.00298702
-0.039 0.05650685 -0.00298702
-0.0385 0.05652037 -0.002852008
-0.038 0.05652037 -0.002852008
-0.0375 0.05653389 -0.002717033
-0.037 0.05654741 -0.002582029
-0.0365 0.05653389 -0.002717033
-0.036 0.05654741 -0.002582029
-0.0355 0.05654741 -0.002582029
-0.035 0.05657445 -0.002312042
-0.0345 0.05653389 -0.002717033
-0.024 0.05831037 0.01597516
-0.0235 0.05839037 0.01686299
-0.023 0.05841323 0.01711664
-0.0225 0.05844752 0.01749713
-0.022 0.05847038 0.0177508
-0.0215 0.05850466 0.01813129
-0.021 0.05852752 0.01838494
-0.0205 0.05856181 0.01876546
-0.02 0.05855038 0.01863862
-0.0195 0.05858466 0.0190191
-0.019 0.05863038 0.01952644
-0.0185 0.0586761 0.02003377
-0.018 0.05868753 0.0201606
-0.0175 0.05864181 0.01965328
-0.017 0.05860752 0.01927276
-0.0165 0.05855038 0.01863862
-0.016 0.05850466 0.01813129
-0.0155 0.05847038 0.0177508
-0.015 0.05839037 0.01686299
-0.0145 0.05837894 0.01673615
-0.014 0.05829894 0.01584832
-0.0135 0.05823037 0.01508735
-0.013 0.0582418 0.01521417
-0.0125 0.05813894 0.01407269
-0.012 0.05808179 0.01343853
-0.0115 0.05805893 0.01318488
-0.011 0.05799036 0.01242387
-0.0105 0.05793322 0.01178973
-0.01 0.05791036 0.01153605
-0.009500001 0.0578875 0.0112824
-0.009000001 0.05773893 0.009633601
-0.0085 0.05767035 0.008872606
-0.008 0.05767035 0.008872606
-0.0075 0.05756749 0.007731125
-0.007 0.0573856 0.005787827
-0.006 0.05741264 0.006057814
-0.0055 0.0573856 0.005787827
-0.005 0.05739912 0.005922824
-0.0045 0.05747606 0.006716467
-0.004 0.05748749 0.006843314
-0.0035 0.05747606 0.006716467
-0.003 0.05746463 0.006589636
-0.0025 0.05730449 0.004977852
-0.002 0.05735857 0.005517818
-0.0015 0.0573856 0.005787827
-0.001 0.05739912 0.005922824
-0.0005 0.05742616 0.006192818
0 0.05742616 0.006192818
0.0005 0.05727745 0.004707843
0.001 0.05731801 0.005112827
0.0015 0.05734505 0.005382836
0.002 0.05735857 0.005517818
0.0025 0.0573856 0.005787827
0.003 0.05737209 0.005652823
0.0035 0.05734505 0.005382836
0.004 0.05733153 0.005247831
0.0045 0.05735857 0.005517818
0.0055 0.05714226 0.003357872
0.006 0.05720985 0.004032843
0.0065 0.05725041 0.004437856
0.007 0.05725041 0.004437856
0.0075 0.05715578 0.003492869
0.008 0.0571017 0.002952881
0.0085 0.0571017 0.002952881
0.009000001 0.05708818 0.002817877
0.009500001 0.0571017 0.002952881
0.01 0.0571017 0.002952881
0.0105 0.05711522 0.003087863
0.011 0.05711522 0.003087863
0.0115 0.0571017 0.002952881
0.012 0.05708818 0.002817877
0.0125 0.0571017 0.002952881
0.013 0.05711522 0.003087863
0.0135 0.05711522 0.003087863
0.014 0.05712874 0.003222868
0.0145 0.05712874 0.003222868
0.015 0.05714226 0.003357872
0.0155 0.05715578 0.003492869
0.016 0.05715578 0.003492869
0.0165 0.0571693 0.003627859
0.017 0.05714226 0.003357872
0.0175 0.05714226 0.003357872
0.018 0.05711522 0.003087863
0.0185 0.05703411 0.002277888
0.019 0.05699354 0.00187289
0.0195 0.05676372 -0.000422053
0.02 0.0568178 0.0001179352
0.0205 0.05683132 0.0002529174
0.021 0.05685835 0.0005229264
0.0215 0.05683132 0.0002529174
0.022 0.05683132 0.0002529174
0.0225 0.0568178 0.0001179352
0.023 0.0568178 0.0001179352
0.0235 0.05683132 0.0002529174
0.0245 0.05689891 0.0009279177
0.025 0.05695299 0.001467906
0.0255 0.05698003 0.001737893
0.026 0.05699354 0.00187289
0.0265 0.05702058 0.002142876
0.027 0.05703411 0.002277888
0.0275 0.05704762 0.002412885
0.028 0.05706114 0.00254789
0.0285 0.05708818 0.002817877
0.029 0.05708818 0.002817877
0.0295 0.0571017 0.002952881
0.03 0.05708818 0.002817877
0.0305 0.05698003 0.001737893
0.031 0.05699354 0.00187289
0.0315 0.05699354 0.00187289
0.032 0.05702058 0.002142876
0.0325 0.05704762 0.002412885
0.033 0.05704762 0.002412885
0.0335 0.05703411 0.002277888
0.034 0.05702058 0.002142876
0.0345 0.05700707 0.002007902
0.035 0.05698003 0.001737893
0.0355 0.05695299 0.001467906
0.036 0.05695299 0.001467906
0.0365 0.05692595 0.001197904
0.037 0.05689891 0.0009279177
0.0375 0.05689891 0.0009279177
0.038 0.05684483 0.0003879219
0.0385 0.05684483 0.0003879219
0.039 0.05683132 0.0002529174
0.0395 0.0568178 0.0001179352
0.04 0.05680428 -1.706928E-05
0.0405 0.05677724 -0.0002870783
0.041 0.05676372 -0.000422053
0.0415 0.05673668 -0.0006920621
0.042 0.05672316 -0.0008270666
0.0425 0.0566826 -0.00123205
0.043 0.0566826 -0.00123205
0.0435 0.05666908 -0.00136704
0.044 0.05660149 -0.002042033
0.0445 0.05658797 -0.002177037
0.045 0.05650685 -0.00298702
0.0455 0.0564663 -0.003392003
0.046 0.05645277 -0.003527008
0.0465 0.05645277 -0.003527008
0.047 0.05641222 -0.003931999
0.0475 0.05643925 -0.003662013
0.048 0.05634462 -0.004606992
0.0485 0.0563311 -0.004742004
0.049 0.0563311 -0.004742004
0.0495 0.05626351 -0.005416974
0.05 0.05616887 -0.006361961
0.0505 0.05618239 -0.006226949
0.051 0.05616887 -0.006361961
0.0515 0.05607424 -0.007306933
0.052 0.05604719 -0.007576942
0.0525 0.05602016 -0.007846929
0.053 0.05599312 -0.008116938
0.0535 0.055912 -0.008926913
0.054 0.05585793 -0.009466909
0.0545 0.05580385 -0.0100069
0.055 0.05583089 -0.009736896
0.0555 0.05557402 -0.01230185
0.056 0.0556281 -0.01176186
0.0565 0.0556281 -0.01176186
0.057 0.0556281 -0.01176186
0.0575 0.0556281 -0.01176186
0.058 0.05560106 -0.01203187
0.0585 0.0555605 -0.01243685
0.059 0.05545235 -0.01351681
0.0595 0.05543883 -0.01365183
0.06 0.05531716 -0.01486681
0.0605 0.05530364 -0.0150018
0.061 0.05526308 -0.01540681
0.0615 0.05500621 -0.01797174
0.062 0.05501973 -0.01783676
0.0625 0.05500621 -0.01797174
0.063 0.05488454 -0.01918674
-0.08775 0.05929415 0.0190177
-0.08725 0.05935108 0.01965193
-0.08675 0.05940802 0.02028614
-0.08625001 0.05941941 0.02041298
-0.08575001 0.0594308 0.02053983
-0.08475 0.05933969 0.01952508
-0.08425 0.05940802 0.02028614
-0.08375 0.05944218 0.02066666
-0.08325 0.0594308 0.02053983
-0.08175001 0.05900946 0.01584662
-0.08125 0.05905501 0.01635399
-0.08075 0.05898669 0.01559293
-0.08025 0.05896391 0.01533925
-0.07925 0.0589753 0.01546609
-0.07875001 0.05895253 0.0152124
-0.07625 0.05856536 0.01089973
-0.07475001 0.05877033 0.01318292
-0.07425001 0.0587931 0.01343659
-0.07375 0.05881588 0.01369029
-0.07325 0.05881588 0.01369029
-0.07275 0.05881588 0.01369029
-0.07225 0.05881588 0.01369029
-0.07175 0.05880449 0.01356345
-0.07125001 0.05880449 0.01356345
-0.07075001 0.05878171 0.01330974
-0.07025 0.0587931 0.01343659
-0.06975 0.0587931 0.01343659
-0.06925 0.05880449 0.01356345
-0.06875 0.05874755 0.01292922
-0.06825 0.05873617 0.01280238
-0.06775001 0.05873617 0.01280238
-0.06725001 0.05877033 0.01318292
-0.06675 0.05872478 0.01267554
-0.06625 0.05872478 0.01267554
-0.06575 0.05872478 0.01267554
-0.06525 0.05871339 0.01254869
-0.06475 0.05866784 0.01204132
-0.06425 0.05863368 0.01166078
-0.06375001 0.05863368 0.01166078
-0.06325001 0.05862229 0.01153393
-0.06275 0.05862229 0.01153393
-0.06225 0.05855397 0.01077288
-0.06175 0.05854258 0.01064604
-0.06125 0.05854258 0.01064604
-0.06075 0.05854258 0.01064604
-0.06025 0.05853119 0.01051921
-0.05975 0.05841732 0.00925076
-0.05925 0.05841732 0.00925076
-0.05875 0.05840594 0.009123929
-0.05825 0.05836038 0.008616559
-0.05775 0.05831483 0.008109175
-0.05725 0.05828067 0.007728651
-0.05675 0.05826928 0.007601805
-0.05625 0.05823512 0.007221274
-0.05575 0.05805953 0.005380325
-0.05525 0.05809976 0.005785279
-0.05475 0.05808635 0.005650289
-0.05425 0.05799249 0.004705377
-0.05375 0.05795227 0.004300416
-0.05325 0.05781818 0.002950549
-0.05275 0.05783159 0.003085516
-0.05225 0.05767069 0.001465686
-0.05175 0.05756342 0.0003857836
-0.05125 0.05730866 -0.002178982
-0.05075 0.05736229 -0.001639031
-0.05025 0.05733548 -0.001909003
-0.04975 0.05732207 -0.002043992
-0.04925 0.05732207 -0.002043992
-0.04875 0.05726843 -0.002583943
-0.04825 0.05725503 -0.00271894
-0.04775 0.05722821 -0.002988905
-0.04725 0.0572148 -0.003123894
-0.04675 0.05718799 -0.003393859
-0.04625 0.05718799 -0.003393859
-0.04575 0.05716117 -0.003663845
-0.04525 0.05720139 -0.003258884
-0.04475 0.0572148 -0.003123894
-0.04425 0.0572148 -0.003123894
-0.04375 0.0572148 -0.003123894
-0.04325 0.0572148 -0.003123894
-0.04275 0.05720139 -0.003258884
-0.04225 0.05720139 -0.003258884
-0.04175 0.05720139 -0.003258884
-0.04125 0.05722821 -0.002988905
-0.04075 0.0572148 -0.003123894
-0.04025 0.05724162 -0.002853908
-0.03975 0.05724162 -0.002853908
-0.03925 0.05722821 -0.002988905
-0.03875 0.05722821 -0.002988905
-0.03825 0.05724162 -0.002853908
-0.03775 0.05725503 -0.00271894
-0.03725 0.05726843 -0.002583943
-0.03675 0.05725503 -0.00271894
-0.03625 0.05725503 -0.00271894
-0.03575 0.05725503 -0.00271894
-0.03525 0.05725503 -0.00271894
-0.03475 0.05726843 -0.002583943
-0.03425 0.05725503 -0.00271894
-0.02325 0.05907778 0.01660767
-0.02275 0.05912334 0.01711505
-0.02225 0.05914611 0.01736875
-0.02175 0.05916889 0.01762242
-0.02125 0.05920305 0.01800295
-0.02075 0.05923721 0.01838348
-0.02025 0.05925998 0.01863718
-0.01975 0.05927137 0.01876403
-0.01925 0.05928276 0.01889086
-0.01875 0.05931692 0.01927138
-0.01825 0.05931692 0.01927138
-0.01775 0.0592486 0.01851033
-0.01725 0.0592486 0.01851033
-0.01675 0.05925998 0.01863718
-0.01625 0.05918027 0.01774927
-0.01575 0.05914611 0.01736875
-0.01525 0.05910056 0.01686137
-0.01475 0.05905501 0.01635399
-0.01425 0.05903224 0.01610029
-0.01375 0.05895253 0.0152124
-0.01325 0.05894114 0.01508557
-0.01275 0.05891836 0.01483187
-0.01225 0.05880449 0.01356345
-0.01175 0.0587931 0.01343659
-0.01125 0.05872478 0.01267554
-0.01075 0.05869062 0.01229501
-0.01025 0.05864507 0.01178764
-0.00975 0.05858813 0.01115341
-0.00925 0.05856536 0.01089973
-0.00875 0.05850842 0.01026551
-0.00825 0.0584401 0.009504452
-0.00775 0.05841732 0.00925076
-0.00725 0.05838316 0.008870237
-0.00675 0.05838316 0.008870237
-0.00625 0.05820096 0.006840751
-0.00575 0.05818957 0.006713897
-0.00525 0.05818957 0.006713897
-0.00475 0.05818957 0.006713897
-0.00425 0.05823512 0.007221274
-0.00375 0.0582579 0.007474951
-0.00325 0.05823512 0.007221274
-0.00275 0.05803271 0.005110331
-0.00225 0.05809976 0.005785279
-0.00175 0.05812657 0.006055243
-0.00125 0.0581668 0.006460205
-0.00075 0.0581668 0.006460205
-0.00025 0.05818957 0.006713897
0.00025 0.05818957 0.006713897
0.00075 0.05813998 0.006190233
0.00125 0.05809976 0.005785279
0.00175 0.05812657 0.006055243
0.00225 0.05815339 0.00632523
0.00275 0.05818957 0.006713897
0.00325 0.0581668 0.006460205
0.00375 0.05813998 0.006190233
0.00425 0.05815339 0.00632523
0.00475 0.05812657 0.006055243
0.00525 0.05811317 0.005920269
0.00575 0.05792545 0.004030429
0.00625 0.05799249 0.004705377
0.00675 0.05803271 0.005110331
0.00725 0.05805953 0.005380325
0.00775 0.05803271 0.005110331
0.00825 0.05803271 0.005110331
0.00875 0.05801931 0.004975364
0.00925 0.05781818 0.002950549
0.00975 0.05785841 0.003355503
0.01025 0.05789863 0.003760464
0.01075 0.05789863 0.003760464
0.01125 0.057845 0.003220513
0.01175 0.057845 0.003220513
0.01225 0.057845 0.003220513
0.01275 0.057845 0.003220513
0.01325 0.05783159 0.003085516
0.01375 0.05783159 0.003085516
0.01425 0.057845 0.003220513
0.01475 0.05787181 0.0034905
0.01525 0.05788522 0.003625475
0.01575 0.05788522 0.003625475
0.01625 0.05789863 0.003760464
0.01675 0.05789863 0.003760464
0.01725 0.05789863 0.003760464
0.01775 0.05788522 0.003625475
0.01825 0.057845 0.003220513
0.01875 0.05780477 0.002815552
0.01925 0.05776455 0.002410598
0.01975 0.05752319 -1.917779E-05
0.02025 0.05757683 0.0005207807
0.02075 0.05760365 0.0007907376
0.02125 0.05760365 0.0007907376
0.02175 0.05760365 0.0007907376
0.02225 0.05757683 0.0005207807
0.02275 0.05759024 0.000655748
0.02325 0.05757683 0.0005207807
0.02375 0.05764387 0.001195699
0.02425 0.05768409 0.00160066
0.02475 0.05771091 0.00187064
0.02525 0.05775114 0.002275601
0.02575 0.05777796 0.002545588
0.02625 0.05777796 0.002545588
0.02675 0.05779136 0.002680562
0.02725 0.05781818 0.002950549
0.02775 0.05780477 0.002815552
0.02825 0.05781818 0.002950549
0.02875 0.05783159 0.003085516
0.02925 0.057845 0.003220513
0.02975 0.057845 0.003220513
0.03025 0.05781818 0.002950549
0.03075 0.05775114 0.002275601
0.03125 0.05775114 0.002275601
0.03175 0.05776455 0.002410598
0.03225 0.05777796 0.002545588
0.03275 0.05779136 0.002680562
0.03325 0.05777796 0.002545588
0.03375 0.05776455 0.002410598
0.03425 0.05775114 0.002275601
0.03475 0.05771091 0.00187064
0.03525 0.0576975 0.00173565
0.03575 0.05767069 0.001465686
0.03625 0.05764387 0.001195699
0.03675 0.05760365 0.0007907376
0.03725 0.05763046 0.001060724
0.03775 0.05759024 0.000655748
0.03825 0.05757683 0.0005207807
0.03875 0.05757683 0.0005207807
0.03925 0.05756342 0.0003857836
0.03975 0.05760365 0.0007907376
0.04025 0.05763046 0.001060724
0.04075 0.05760365 0.0007907376
0.04125 0.05755001 0.0002507865
0.04175 0.05752319 -1.917779E-05
0.04225 0.05756342 0.0003857836
0.04275 0.05749638 -0.0002891645
0.04325 0.05750979 -0.0001541674
0.04375 0.05750979 -0.0001541674
0.04425 0.05732207 -0.002043992
0.04525 0.05722821 -0.002988905
0.04575 0.05722821 -0.002988905
0.04625 0.05726843 -0.002583943
0.04675 0.05728184 -0.002448946
0.04725 0.05725503 -0.00271894
0.04775 0.05722821 -0.002988905
0.04825 0.05725503 -0.00271894
0.04875 0.0572148 -0.003123894
0.04925 0.05720139 -0.003258884
0.04975 0.05717457 -0.003528848
0.05025 0.05704049 -0.004878715
0.05075 0.05706731 -0.00460875
0.05125 0.0570539 -0.004743747
0.05175 0.05698686 -0.005418673
0.05275 0.05685277 -0.00676854
0.05325 0.0567321 -0.007983439
0.05375 0.05678573 -0.007443488
0.05475 0.0565846 -0.009468302
0.05525 0.05665165 -0.008793354
0.05575 0.05634325 -0.01189807
0.05625 0.05637007 -0.01162808
0.05675 0.05635666 -0.01176307
0.05725 0.05635666 -0.01176307
0.05775 0.05637007 -0.01162808
0.05825 0.05635666 -0.01176307
0.05875 0.05630303 -0.01230303
0.05925 0.05622258 -0.01311295
0.05975 0.05619576 -0.01338293
0.06025 0.0561019 -0.01432785
0.06075 0.05606167 -0.0147328
0.06125 0.05603486 -0.01500276
0.06175 0.0557801 -0.01756753
0.06225 0.0557801 -0.01756753
0.06275 0.05575328 -0.01783752
0.06325001 0.05571306 -0.01824248
0.06375001 0.05553875 -0.0199973
-0.08800001 0.05993555 0.01825517
-0.08750001 0.0599469 0.01838201
-0.0855 0.05990152 0.01787461
-0.085 0.05992421 0.01812831
-0.08450001 0.05984479 0.01724032
-0.082 0.05971999 0.01584491
-0.0815 0.05970864 0.01571805
-0.081 0.05966325 0.01521063
-0.08050001 0.05969729 0.01559119
-0.0795 0.05964056 0.01495693
-0.079 0.05966325 0.01521063
-0.07600001 0.0592775 0.01089755
-0.0755 0.05931154 0.01127812
-0.075 0.05933423 0.01153181
-0.0745 0.05937961 0.01203924
-0.074 0.05939096 0.01216611
-0.0735 0.05945903 0.01292723
-0.07300001 0.05944769 0.01280039
-0.07250001 0.05947038 0.01305409
-0.072 0.05945903 0.01292723
-0.0715 0.059425 0.01254667
-0.071 0.05939096 0.01216611
-0.0705 0.05940231 0.01229297
-0.07 0.05941365 0.01241981
-0.06950001 0.059425 0.01254667
-0.06900001 0.05937961 0.01203924
-0.0685 0.05939096 0.01216611
-0.068 0.05940231 0.01229297
-0.0675 0.05941365 0.01241981
-0.067 0.05939096 0.01216611
-0.0665 0.05939096 0.01216611
-0.066 0.05939096 0.01216611
-0.06550001 0.05939096 0.01216611
-0.06500001 0.05930019 0.01115125
-0.0645 0.05930019 0.01115125
-0.064 0.05931154 0.01127812
-0.0635 0.05932288 0.01140498
-0.063 0.05931154 0.01127812
-0.0625 0.0592775 0.01089755
-0.062 0.05922077 0.01026327
-0.0615 0.05922077 0.01026327
-0.061 0.05922077 0.01026327
-0.0605 0.05918673 0.009882703
-0.06 0.05914135 0.009375282
-0.0595 0.05913001 0.009248421
-0.059 0.05913001 0.009248421
-0.0585 0.05907328 0.00861416
-0.058 0.05902789 0.008106731
-0.0575 0.05894847 0.007218748
-0.057 0.05892578 0.006965019
-0.0565 0.05891443 0.006838188
-0.056 0.05882721 0.005917713
-0.0555 0.05876072 0.005242817
-0.055 0.05874742 0.005107835
-0.0545 0.05868093 0.004432961
-0.054 0.05864104 0.004028015
-0.0535 0.05850806 0.002678245
-0.053 0.05850806 0.002678245
-0.0525 0.0583485 0.001058534
-0.052 0.05829531 0.0005186275
-0.0515 0.05802935 -0.002180927
-0.051 0.05805595 -0.001910962
-0.0505 0.05804265 -0.002045944
-0.05 0.05801605 -0.002315909
-0.0495 0.05800276 -0.002450868
-0.049 0.05796286 -0.0028558
-0.0485 0.05796286 -0.0028558
-0.048 0.05794957 -0.002990782
-0.0475 0.05790967 -0.003395714
-0.047 0.05789638 -0.003530696
-0.0465 0.05789638 -0.003530696
-0.046 0.05789638 -0.003530696
-0.0455 0.05789638 -0.003530696
-0.045 0.05790967 -0.003395714
-0.0445 0.05793627 -0.003125764
-0.044 0.05793627 -0.003125764
-0.0435 0.05790967 -0.003395714
-0.043 0.05789638 -0.003530696
-0.0425 0.05790967 -0.003395714
-0.042 0.05792297 -0.003260747
-0.0415 0.05792297 -0.003260747
-0.041 0.05794957 -0.002990782
-0.0405 0.05794957 -0.002990782
-0.04 0.05793627 -0.003125764
-0.0395 0.05794957 -0.002990782
-0.039 0.05793627 -0.003125764
-0.0385 0.05794957 -0.002990782
-0.038 0.05796286 -0.0028558
-0.0375 0.05796286 -0.0028558
-0.037 0.05797616 -0.00272084
-0.0365 0.05796286 -0.0028558
-0.036 0.05797616 -0.00272084
-0.0355 0.05798946 -0.002585858
-0.035 0.05796286 -0.0028558
-0.0345 0.05796286 -0.0028558
-0.034 0.05796286 -0.0028558
-0.0335 0.05793627 -0.003125764
-0.033 0.05794957 -0.002990782
-0.022 0.0598221 0.0169866
-0.0215 0.05985614 0.01736718
-0.021 0.05989017 0.01774774
-0.0205 0.05991286 0.01800145
-0.02 0.05993555 0.01825517
-0.0195 0.05993555 0.01825517
-0.019 0.05993555 0.01825517
-0.0185 0.05992421 0.01812831
-0.018 0.05991286 0.01800145
-0.0175 0.05991286 0.01800145
-0.017 0.05989017 0.01774774
-0.0165 0.05985614 0.01736718
-0.016 0.05985614 0.01736718
-0.0155 0.0598221 0.0169866
-0.015 0.05973133 0.01597176
-0.0145 0.05971999 0.01584491
-0.014 0.05965191 0.01508379
-0.0135 0.05965191 0.01508379
-0.013 0.05959518 0.0144495
-0.0125 0.05952711 0.01368838
-0.012 0.05950442 0.01343466
-0.0115 0.05944769 0.01280039
-0.011 0.05941365 0.01241981
-0.0105 0.05936827 0.01191241
-0.01 0.05934557 0.01165868
-0.009500001 0.05930019 0.01115125
-0.009000001 0.0592775 0.01089755
-0.0085 0.05924346 0.01051699
-0.008 0.05920943 0.0101364
-0.0075 0.05916404 0.009629004
-0.007 0.05914135 0.009375282
-0.0065 0.05911866 0.009121582
-0.006 0.05902789 0.008106731
-0.0055 0.05895982 0.007345609
-0.005 0.05899385 0.00772617
-0.0045 0.05898251 0.007599309
-0.004 0.0590052 0.007853009
-0.0035 0.05901655 0.00797987
-0.003 0.05899385 0.00772617
-0.0025 0.05890309 0.006711319
-0.002 0.05890309 0.006711319
-0.0015 0.05890309 0.006711319
-0.001 0.05892578 0.006965019
-0.0005 0.05894847 0.007218748
0 0.05895982 0.007345609
0.0005 0.05899385 0.00772617
0.001 0.05893712 0.007091887
0.0015 0.05894847 0.007218748
0.002 0.05890309 0.006711319
0.0025 0.05892578 0.006965019
0.003 0.05894847 0.007218748
0.0035 0.05892578 0.006965019
0.004 0.05894847 0.007218748
0.0045 0.05893712 0.007091887
0.005 0.05890309 0.006711319
0.0055 0.05889174 0.006584458
0.006 0.05890309 0.006711319
0.0065 0.05876072 0.005242817
0.007 0.05881391 0.005782731
0.0075 0.05882721 0.005917713
0.008 0.05881391 0.005782731
0.0085 0.05880061 0.005647749
0.009000001 0.05880061 0.005647749
0.009500001 0.05874742 0.005107835
0.01 0.05866764 0.004297979
0.0105 0.05868093 0.004432961
0.011 0.05869423 0.004567921
0.0115 0.05862774 0.003893048
0.012 0.05864104 0.004028015
0.0125 0.05862774 0.003893048
0.013 0.05862774 0.003893048
0.0135 0.05857455 0.003353141
0.014 0.05856125 0.003218159
0.0145 0.05858785 0.003488123
0.015 0.05861444 0.003758073
0.0155 0.05861444 0.003758073
0.016 0.05862774 0.003893048
0.0165 0.05865434 0.004162997
0.017 0.05864104 0.004028015
0.0175 0.05864104 0.004028015
0.018 0.05862774 0.003893048
0.0185 0.05860115 0.003623091
0.019 0.05856125 0.003218159
0.0195 0.05849477 0.002543285
0.02 0.05828201 0.0003836453
0.0205 0.0583352 0.0009235516
0.021 0.0583485 0.001058534
0.0215 0.0583485 0.001058534
0.022 0.05836179 0.001193501
0.0225 0.05836179 0.001193501
0.023 0.05838839 0.001463465
0.0235 0.05840168 0.001598425
0.024 0.05842828 0.00186839
0.0245 0.05845487 0.002138339
0.025 0.05848147 0.002408303
0.0255 0.05850806 0.002678245
0.026 0.05852136 0.002813227
0.0265 0.05854796 0.003083177
0.027 0.05854796 0.003083177
0.0275 0.05856125 0.003218159
0.028 0.05856125 0.003218159
0.0285 0.05858785 0.003488123
0.029 0.05860115 0.003623091
0.0295 0.05858785 0.003488123
0.03 0.05858785 0.003488123
0.0305 0.05854796 0.003083177
0.031 0.05850806 0.002678245
0.0315 0.05849477 0.002543285
0.032 0.05849477 0.002543285
0.0325 0.05850806 0.002678245
0.033 0.05850806 0.002678245
0.0335 0.05849477 0.002543285
0.034 0.05848147 0.002408303
0.0345 0.05842828 0.00186839
0.035 0.05841498 0.001733407
0.0355 0.05841498 0.001733407
0.036 0.05841498 0.001733407
0.0365 0.05841498 0.001733407
0.037 0.05837509 0.001328483
0.0375 0.05842828 0.00186839
0.038 0.05844158 0.002003379
0.0385 0.05840168 0.001598425
0.039 0.05842828 0.00186839
0.0395 0.05842828 0.00186839
0.04 0.05841498 0.001733407
0.0405 0.05841498 0.001733407
0.041 0.05838839 0.001463465
0.0415 0.0583352 0.0009235516
0.042 0.0583485 0.001058534
0.0425 0.0583485 0.001058534
0.043 0.0583219 0.0007885695
0.0435 0.05829531 0.0005186275
0.044 0.05826871 0.0002486631
0.0445 0.05825541 0.0001136959
0.045 0.05821552 -0.0002912506
0.0455 0.05802935 -0.002180927
0.046 0.05804265 -0.002045944
0.0465 0.05806924 -0.001776002
0.047 0.05808254 -0.00164102
0.0475 0.05810914 -0.001371048
0.048 0.05804265 -0.002045944
0.0485 0.05802935 -0.002180927
0.049 0.05797616 -0.00272084
0.0495 0.05796286 -0.0028558
0.05 0.05789638 -0.003530696
0.0505 0.05786978 -0.003800638
0.051 0.05784319 -0.004070602
0.0515 0.05779 -0.004610516
0.052 0.05772351 -0.00528539
0.0525 0.05767032 -0.005825296
0.053 0.05763043 -0.006230228
0.0535 0.05761713 -0.00636521
0.054 0.05755064 -0.007040106
0.0545 0.05751074 -0.00744503
0.055 0.05740437 -0.00852485
0.0555 0.05740437 -0.00852485
0.056 0.05735118 -0.009064764
0.057 0.05707192 -0.01189928
0.0575 0.05711182 -0.01149435
0.058 0.05711182 -0.01149435
0.0585 0.05709852 -0.01162931
0.059 0.05705863 -0.01203426
0.0595 0.05699214 -0.01270913
0.06 0.05692565 -0.01338403
0.0605 0.05684587 -0.01419389
0.061 0.05680598 -0.01459882
0.0615 0.05677938 -0.01486877
0.062 0.05655332 -0.01716338
0.0625 0.05650013 -0.01770329
0.063 0.05648683 -0.01783828
0.0635 0.05634056 -0.01932302
0.064 0.05631397 -0.01959297
-0.08975001 0.06043051 0.01584321
-0.08925001 0.06038529 0.01533573
-0.08875 0.06049833 0.0166044
-0.08825 0.06052094 0.01685815
-0.08775 0.06053225 0.01698501
-0.08725 0.06049833 0.0166044
-0.08675 0.06052094 0.01685815
-0.08575001 0.06055486 0.01723874
-0.08525001 0.06058877 0.01761934
-0.08425 0.06054355 0.01711188
-0.08375 0.06027225 0.01406706
-0.08325 0.06031747 0.01457454
-0.08075 0.0601366 0.01254465
-0.08025 0.06015921 0.01279839
-0.07525001 0.06000095 0.01102223
-0.07475001 0.06002356 0.01127598
-0.07375 0.05992182 0.01013415
-0.07325 0.06000095 0.01102223
-0.07275 0.06001225 0.0111491
-0.07225 0.06003486 0.01140285
-0.07175 0.06002356 0.01127598
-0.07125001 0.06002356 0.01127598
-0.07075001 0.06005747 0.01165657
-0.07025 0.06008008 0.01191032
-0.06975 0.06008008 0.01191032
-0.06925 0.06006877 0.01178345
-0.06875 0.06004617 0.0115297
-0.06825 0.06002356 0.01127598
-0.06775001 0.06003486 0.01140285
-0.06725001 0.06002356 0.01127598
-0.06675 0.06004617 0.0115297
-0.06625 0.06001225 0.0111491
-0.06575 0.05996704 0.01064163
-0.06525 0.05997834 0.0107685
-0.06475 0.05997834 0.0107685
-0.06425 0.05998965 0.01089538
-0.06375001 0.06000095 0.01102223
-0.06325001 0.05998965 0.01089538
-0.06275 0.05996704 0.01064163
-0.06225 0.0598653 0.009499833
-0.06175 0.05988791 0.009753555
-0.06125 0.05987661 0.009626701
-0.06075 0.05984269 0.009246089
-0.06025 0.05984269 0.009246089
-0.05975 0.05984269 0.009246089
-0.05925 0.05982008 0.008992359
-0.05875 0.05977486 0.008484893
-0.05825 0.05974095 0.008104287
-0.05775 0.0596053 0.006581873
-0.05725 0.05961661 0.006708741
-0.05675 0.0596053 0.006581873
-0.05625 0.05954125 0.00591515
-0.05575 0.05946213 0.005105339
-0.05525 0.0593962 0.004430518
-0.05475 0.05927752 0.003215805
-0.05425 0.05933026 0.003755674
-0.05375 0.05911928 0.001596197
-0.05325 0.05913246 0.001731165
-0.05275 0.05905334 0.000921376
-0.05225 0.05896104 -2.339482E-05
-0.05175 0.05871049 -0.002587773
-0.05125 0.05875005 -0.002182871
-0.05075 0.05871049 -0.002587773
-0.05025 0.0586973 -0.00272274
-0.04975 0.05868411 -0.002857693
-0.04925 0.05865774 -0.003127642
-0.04875 0.05864455 -0.003262609
-0.04825 0.05865774 -0.003127642
-0.04775 0.05861818 -0.003532536
-0.04725 0.05860499 -0.003667511
-0.04675 0.05859181 -0.003802456
-0.04625 0.05861818 -0.003532536
-0.04575 0.05860499 -0.003667511
-0.04525 0.05861818 -0.003532536
-0.04475 0.05863137 -0.003397562
-0.04425 0.05864455 -0.003262609
-0.04375 0.05864455 -0.003262609
-0.04325 0.05861818 -0.003532536
-0.04275 0.05859181 -0.003802456
-0.04225 0.05861818 -0.003532536
-0.04175 0.05861818 -0.003532536
-0.04125 0.05864455 -0.003262609
-0.04075 0.05865774 -0.003127642
-0.04025 0.05864455 -0.003262609
-0.03975 0.05863137 -0.003397562
-0.03925 0.05864455 -0.003262609
-0.03875 0.05864455 -0.003262609
-0.03825 0.05867093 -0.002992667
-0.03775 0.05867093 -0.002992667
-0.03725 0.05867093 -0.002992667
-0.03675 0.05868411 -0.002857693
-0.03625 0.05868411 -0.002857693
-0.03575 0.05868411 -0.002857693
-0.03525 0.05868411 -0.002857693
-0.03475 0.05867093 -0.002992667
-0.03425 0.05867093 -0.002992667
-0.03375 0.05867093 -0.002992667
-0.03325 0.05867093 -0.002992667
-0.03275 0.05868411 -0.002857693
-0.03225 0.05867093 -0.002992667
-0.03175 0.05867093 -0.002992667
-0.03025 0.05861818 -0.003532536
-0.01925 0.06053225 0.01698501
-0.01875 0.06056616 0.01736562
-0.01825 0.06055486 0.01723874
-0.01775 0.06055486 0.01723874
-0.01725 0.06052094 0.01685815
-0.01675 0.06050964 0.01673128
-0.01625 0.06052094 0.01685815
-0.01575 0.06045312 0.01609693
-0.01525 0.06041921 0.01571633
-0.01475 0.0603966 0.01546261
-0.01425 0.06038529 0.01533573
-0.01375 0.06031747 0.01457454
-0.01325 0.06027225 0.01406706
-0.01275 0.06024964 0.01381332
-0.01225 0.06023834 0.01368646
-0.01175 0.0601479 0.01267152
-0.01125 0.0601253 0.01241778
-0.01075 0.0601253 0.01241778
-0.01025 0.06005747 0.01165657
-0.00975 0.06004617 0.0115297
-0.00925 0.06001225 0.0111491
-0.00875 0.05998965 0.01089538
-0.00825 0.05996704 0.01064163
-0.00775 0.05993313 0.01026103
-0.00725 0.05989921 0.009880431
-0.00675 0.05988791 0.009753555
-0.00625 0.059854 0.009372965
-0.00575 0.05980878 0.008865491
-0.00525 0.05971834 0.007850543
-0.00475 0.05975226 0.008231163
-0.00425 0.05974095 0.008104287
-0.00375 0.05976356 0.008358017
-0.00325 0.05977486 0.008484893
-0.00275 0.05972965 0.007977419
-0.00225 0.05968443 0.007469945
-0.00175 0.05967313 0.007343091
-0.00125 0.05967313 0.007343091
-0.00075 0.05969574 0.007596821
-0.00025 0.05972965 0.007977419
0.00025 0.05972965 0.007977419
0.00075 0.05974095 0.008104287
0.00125 0.05971834 0.007850543
0.00175 0.05972965 0.007977419
0.00225 0.05966182 0.007216223
0.00275 0.05968443 0.007469945
0.00325 0.05969574 0.007596821
0.00375 0.05969574 0.007596821
0.00425 0.05970704 0.007723689
0.00475 0.05970704 0.007723689
0.00525 0.05967313 0.007343091
0.00575 0.05965052 0.007089347
0.00625 0.05966182 0.007216223
0.00675 0.05958081 0.006320052
0.00725 0.05958081 0.006320052
0.00775 0.059594 0.006455004
0.00825 0.059594 0.006455004
0.00875 0.05958081 0.006320052
0.00925 0.05955444 0.006050102
0.00975 0.05955444 0.006050102
0.01025 0.05942257 0.004700445
0.01075 0.05946213 0.005105339
0.01125 0.05947532 0.005240306
0.01175 0.05940938 0.00456547
0.01225 0.05940938 0.00456547
0.01275 0.05940938 0.00456547
0.01325 0.05940938 0.00456547
0.01375 0.05933026 0.003755674
0.01425 0.05930389 0.003485747
0.01475 0.05933026 0.003755674
0.01525 0.05934345 0.003890641
0.01575 0.05933026 0.003755674
0.01625 0.05936982 0.004160568
0.01675 0.05938301 0.004295543
0.01725 0.05938301 0.004295543
0.01775 0.05938301 0.004295543
0.01825 0.05938301 0.004295543
0.01875 0.05933026 0.003755674
0.01925 0.05930389 0.003485747
0.01975 0.05925114 0.002945878
0.02025 0.05905334 0.000921376
0.02075 0.0590929 0.00132627
0.02125 0.0590929 0.00132627
0.02175 0.0590929 0.00132627
0.02225 0.05910609 0.001461245
0.02275 0.05913246 0.001731165
0.02325 0.05917202 0.002136067
0.02375 0.05918521 0.002271041
0.02425 0.05921159 0.002540983
0.02475 0.05922477 0.002675936
0.02525 0.05925114 0.002945878
0.02575 0.05926433 0.00308083
0.02625 0.05927752 0.003215805
0.02675 0.0592907 0.003350779
0.02725 0.05930389 0.003485747
0.02775 0.05930389 0.003485747
0.02825 0.05933026 0.003755674
0.02875 0.05933026 0.003755674
0.02925 0.05934345 0.003890641
0.02975 0.05933026 0.003755674
0.03025 0.05933026 0.003755674
0.03075 0.05926433 0.00308083
0.03125 0.05925114 0.002945878
0.03175 0.05923796 0.002810903
0.03225 0.05923796 0.002810903
0.03275 0.05925114 0.002945878
0.03325 0.05923796 0.002810903
0.03375 0.05923796 0.002810903
0.03425 0.05923796 0.002810903
0.03475 0.05923796 0.002810903
0.03525 0.0591984 0.002406009
0.03575 0.05923796 0.002810903
0.03625 0.05922477 0.002675936
0.03675 0.05922477 0.002675936
0.03725 0.05922477 0.002675936
0.03775 0.05921159 0.002540983
0.03825 0.0591984 0.002406009
0.03875 0.05918521 0.002271041
0.03925 0.0591984 0.002406009
0.03975 0.05918521 0.002271041
0.04025 0.05917202 0.002136067
0.04075 0.05917202 0.002136067
0.04125 0.05914565 0.001866139
0.04175 0.05910609 0.001461245
0.04225 0.05911928 0.001596197
0.04275 0.0590929 0.00132627
0.04325 0.05907971 0.001191303
0.04375 0.05904016 0.0007864013
0.04425 0.05902697 0.0006514266
0.04475 0.05901378 0.0005164817
0.04525 0.0590006 0.000381507
0.04575 0.05880279 -0.001643002
0.04625 0.05882917 -0.00137306
0.04675 0.05882917 -0.00137306
0.04725 0.05884235 -0.0012381
0.04775 0.05884235 -0.0012381
0.04825 0.05881598 -0.001508027
0.04875 0.05878961 -0.001777977
0.04925 0.05872367 -0.002452798
0.04975 0.0586973 -0.00272274
0.05025 0.05864455 -0.003262609
0.05075 0.05865774 -0.003127642
0.05125 0.05855225 -0.00420738
0.05175 0.05852587 -0.0044773
0.05225 0.05848631 -0.004882194
0.05275 0.05839401 -0.005826965
0.05325 0.05838082 -0.00596194
0.05375 0.05836763 -0.006096914
0.05425 0.0583017 -0.006771736
0.05475 0.05827532 -0.007041678
0.05525 0.05814346 -0.008391343
0.05575 0.05813027 -0.008526318
0.05625 0.05813027 -0.008526318
0.05675 0.05806434 -0.009201139
0.05725 0.05803796 -0.009471081
0.05775 0.05782698 -0.01163054
0.05825 0.05782698 -0.01163054
0.05875 0.0578006 -0.01190048
0.05925 0.0578006 -0.01190048
0.05975 0.05773467 -0.01257531
0.06025 0.05766873 -0.01325015
0.06075 0.05761599 -0.01379002
0.06125 0.05756324 -0.01432989
0.06175 0.05727313 -0.01729916
0.06225 0.05725995 -0.01743411
0.06275 0.05723357 -0.01770406
0.06325001 0.05707533 -0.01932367
0.06375001 0.05707533 -0.01932367
0.06425 0.05703577 -0.01972856
0.06475 0.05693028 -0.02080831
-0.09 0.06109598 0.01533398
-0.0895 0.06111851 0.01558772
-0.089 0.06114103 0.01584149
-0.0885 0.06111851 0.01558772
-0.08800001 0.06117482 0.01622213
-0.08750001 0.06116356 0.01609524
-0.087 0.06118609 0.01634902
-0.0865 0.06108472 0.0152071
-0.0855 0.06094957 0.01368455
-0.08400001 0.06094957 0.01368455
-0.08350001 0.06098336 0.01406518
-0.0825 0.06090452 0.01317703
-0.0745 0.06055538 0.009243757
-0.074 0.06055538 0.009243757
-0.0735 0.06065674 0.01038568
-0.07300001 0.06065674 0.01038568
-0.07250001 0.06067926 0.01063943
-0.072 0.06065674 0.01038568
-0.0715 0.06063421 0.0101319
-0.071 0.060668 0.01051256
-0.0705 0.06071305 0.01102006
-0.07 0.06074684 0.01140072
-0.06950001 0.06073558 0.01127383
-0.06900001 0.06071305 0.01102006
-0.0685 0.06069053 0.01076631
-0.068 0.06070179 0.0108932
-0.0675 0.06071305 0.01102006
-0.067 0.06072431 0.01114695
-0.0665 0.060668 0.01051256
-0.066 0.06064548 0.01025879
-0.06550001 0.060668 0.01051256
-0.06500001 0.060668 0.01051256
-0.0645 0.06064548 0.01025879
-0.064 0.06065674 0.01038568
-0.0635 0.06062295 0.01000504
-0.063 0.06058916 0.009624407
-0.0625 0.06055538 0.009243757
-0.062 0.06055538 0.009243757
-0.0615 0.06053285 0.008990005
-0.061 0.06053285 0.008990005
-0.0605 0.06053285 0.008990005
-0.06 0.06052159 0.008863121
-0.0595 0.0604878 0.008482479
-0.059 0.06044275 0.00797496
-0.0585 0.06042022 0.007721208
-0.058 0.06029452 0.006317459
-0.0575 0.06031886 0.006579287
-0.057 0.06031886 0.006579287
-0.0565 0.06026837 0.006047539
-0.056 0.06020299 0.00537277
-0.0555 0.06001993 0.00348337
-0.055 0.05995455 0.002808586
-0.0545 0.05995455 0.002808586
-0.054 0.05983686 0.001593962
-0.0535 0.05981071 0.001324058
-0.053 0.05975841 0.0007842258
-0.0525 0.05966688 -0.0001604632
-0.052 0.05939228 -0.002994552
-0.0515 0.05941844 -0.002724648
-0.051 0.05937921 -0.003129512
-0.0505 0.05935306 -0.003399417
-0.05 0.05937921 -0.003129512
-0.0495 0.05933998 -0.003534377
-0.049 0.05933998 -0.003534377
-0.0485 0.05931383 -0.003804281
-0.048 0.05931383 -0.003804281
-0.0475 0.05930075 -0.003939241
-0.047 0.05924845 -0.004479073
-0.0465 0.05928767 -0.004074208
-0.046 0.05930075 -0.003939241
-0.0455 0.05931383 -0.003804281
-0.045 0.0593269 -0.003669344
-0.0445 0.05935306 -0.003399417
-0.044 0.05936613 -0.003264472
-0.0435 0.05935306 -0.003399417
-0.043 0.05931383 -0.003804281
-0.0425 0.05931383 -0.003804281
-0.042 0.0593269 -0.003669344
-0.0415 0.05935306 -0.003399417
-0.041 0.05935306 -0.003399417
-0.0405 0.05936613 -0.003264472
-0.04 0.0593269 -0.003669344
-0.0395 0.05933998 -0.003534377
-0.039 0.05933998 -0.003534377
-0.0385 0.05935306 -0.003399417
-0.038 0.05937921 -0.003129512
-0.0375 0.05937921 -0.003129512
-0.037 0.05939228 -0.002994552
-0.0365 0.05939228 -0.002994552
-0.036 0.05937921 -0.003129512
-0.0355 0.05937921 -0.003129512
-0.035 0.05939228 -0.002994552
-0.0345 0.05936613 -0.003264472
-0.034 0.05936613 -0.003264472
-0.0335 0.05937921 -0.003129512
-0.033 0.05939228 -0.002994552
-0.0325 0.05940536 -0.002859585
-0.032 0.05939228 -0.002994552
-0.0315 0.05933998 -0.003534377
-0.031 0.05935306 -0.003399417
-0.0305 0.05936613 -0.003264472
-0.03 0.05939228 -0.002994552
-0.0295 0.05935306 -0.003399417
-0.029 0.05933998 -0.003534377
-0.0175 0.06112977 0.01571461
-0.017 0.06116356 0.01609524
-0.0165 0.0611523 0.01596837
-0.016 0.06110725 0.01546086
-0.0155 0.06108472 0.0152071
-0.015 0.06107346 0.01508023
-0.0145 0.06107346 0.01508023
-0.014 0.06098336 0.01406518
-0.0135 0.06094957 0.01368455
-0.013 0.06094957 0.01368455
-0.0125 0.06094957 0.01368455
-0.012 0.06089326 0.01305014
-0.0115 0.06083694 0.01241574
-0.011 0.06082568 0.01228888
-0.0105 0.06080315 0.01203511
-0.01 0.0607581 0.01152758
-0.009500001 0.06073558 0.01127383
-0.009000001 0.06073558 0.01127383
-0.0085 0.06070179 0.0108932
-0.008 0.06069053 0.01076631
-0.0075 0.06064548 0.01025879
-0.007 0.06064548 0.01025879
-0.0065 0.06061169 0.009878159
-0.006 0.0605779 0.009497516
-0.0055 0.06054411 0.009116888
-0.005 0.06047654 0.008355595
-0.0045 0.06051032 0.00873623
-0.004 0.06049906 0.008609369
-0.0035 0.06051032 0.00873623
-0.003 0.06051032 0.00873623
-0.0025 0.06046528 0.008228734
-0.002 0.06043148 0.007848077
-0.0015 0.06043148 0.007848077
-0.001 0.06043148 0.007848077
-0.0005 0.06045401 0.008101843
0 0.0604878 0.008482479
0.0005 0.0604878 0.008482479
0.001 0.0604878 0.008482479
0.0015 0.06046528 0.008228734
0.002 0.06047654 0.008355595
0.0025 0.06042022 0.007721208
0.003 0.06043148 0.007848077
0.0035 0.06044275 0.00797496
0.004 0.06046528 0.008228734
0.0045 0.06046528 0.008228734
0.005 0.06045401 0.008101843
0.0055 0.06043148 0.007848077
0.006 0.06042022 0.007721208
0.0065 0.06042022 0.007721208
0.007 0.06033012 0.006706163
0.0075 0.06034138 0.006833054
0.008 0.06035265 0.006959915
0.0085 0.06036391 0.007086806
0.009000001 0.06035265 0.006959915
0.009500001 0.06033012 0.006706163
0.01 0.06033012 0.006706163
0.0105 0.06018991 0.005237803
0.011 0.06022914 0.005642667
0.0115 0.06024222 0.005777635
0.012 0.06021607 0.005507708
0.0125 0.06018991 0.005237803
0.013 0.06017684 0.005102836
0.0135 0.06015069 0.004832938
0.014 0.06009838 0.004293106
0.0145 0.06004608 0.003753282
0.015 0.06007223 0.004023179
0.0155 0.06008531 0.004158147
0.016 0.06009838 0.004293106
0.0165 0.06011146 0.004428074
0.017 0.06013761 0.004697971
0.0175 0.06013761 0.004697971
0.018 0.06013761 0.004697971
0.0185 0.06012454 0.004563011
0.019 0.06009838 0.004293106
0.0195 0.06004608 0.003753282
0.02 0.05999377 0.00321345
0.0205 0.05982379 0.001459017
0.021 0.05984994 0.00172893
0.0215 0.05984994 0.00172893
0.022 0.05984994 0.00172893
0.0225 0.05986302 0.001863882
0.023 0.05987609 0.001998849
0.0235 0.05991532 0.002403714
0.024 0.05995455 0.002808586
0.0245 0.05996762 0.002943546
0.025 0.05999377 0.00321345
0.0255 0.06000685 0.00334841
0.026 0.06000685 0.00334841
0.0265 0.060033 0.003618315
0.027 0.06004608 0.003753282
0.0275 0.06004608 0.003753282
0.028 0.06005916 0.003888242
0.0285 0.06007223 0.004023179
0.029 0.06008531 0.004158147
0.0295 0.06009838 0.004293106
0.03 0.06007223 0.004023179
0.0305 0.06005916 0.003888242
0.031 0.06000685 0.00334841
0.0315 0.06001993 0.00348337
0.032 0.06000685 0.00334841
0.0325 0.05999377 0.00321345
0.033 0.06000685 0.00334841
0.0335 0.06001993 0.00348337
0.034 0.06000685 0.00334841
0.0345 0.06001993 0.00348337
0.035 0.06001993 0.00348337
0.0355 0.05999377 0.00321345
0.036 0.06000685 0.00334841
0.0365 0.05999377 0.00321345
0.037 0.0599807 0.003078483
0.0375 0.0599807 0.003078483
0.038 0.0599807 0.003078483
0.0385 0.05996762 0.002943546
0.039 0.05994147 0.002673618
0.0395 0.05994147 0.002673618
0.04 0.05992839 0.002538674
0.0405 0.05991532 0.002403714
0.041 0.05991532 0.002403714
0.0415 0.05987609 0.001998849
0.042 0.05984994 0.00172893
0.0425 0.05984994 0.00172893
0.043 0.05981071 0.001324058
0.0435 0.05983686 0.001593962
0.044 0.05981071 0.001324058
0.0445 0.05978456 0.001054153
0.045 0.05975841 0.0007842258
0.0455 0.05974533 0.0006492659
0.046 0.05957535 -0.00110516
0.0465 0.05958842 -0.0009701997
0.047 0.05958842 -0.0009701997
0.0475 0.0596015 -0.0008352548
0.048 0.05958842 -0.0009701997
0.0485 0.05956227 -0.001240119
0.049 0.05953612 -0.001510024
0.0495 0.05949689 -0.001914896
0.05 0.05939228 -0.002994552
0.0505 0.05940536 -0.002859585
0.051 0.05939228 -0.002994552
0.0515 0.05926153 -0.004344113
0.052 0.0592746 -0.004209168
0.0525 0.05923537 -0.004614033
0.053 0.05915692 -0.005423769
0.0535 0.05910461 -0.005963594
0.054 0.05907846 -0.006233498
0.0545 0.05901308 -0.00690829
0.055 0.05900001 -0.007043257
0.0555 0.05893463 -0.007718027
0.056 0.05888233 -0.008257851
0.0565 0.05885617 -0.008527778
0.057 0.05879079 -0.009202547
0.0575 0.05879079 -0.009202547
0.058 0.05852927 -0.01190169
0.0585 0.0585685 -0.01149683
0.059 0.0585685 -0.01149683
0.0595 0.05852927 -0.01190169
0.06 0.05847697 -0.01244152
0.0605 0.05841159 -0.01311629
0.061 0.05837236 -0.01352116
0.0615 0.05830698 -0.01419595
0.062 0.05808469 -0.01649021
0.0625 0.05796701 -0.01770483
0.063 0.05798009 -0.01756986
0.064 0.05777087 -0.01972917
0.0645 0.05769242 -0.02053891
0.06500001 0.05761396 -0.02134865
-0.09175 0.06153737 0.01228683
-0.09075 0.06164958 0.01355574
-0.08925001 0.06173934 0.01457088
-0.08875 0.06168324 0.01393641
-0.08825 0.06162713 0.01330195
-0.08775 0.06164958 0.01355574
-0.08625001 0.06142515 0.0110179
-0.08575001 0.06148126 0.01165237
-0.08525001 0.0614476 0.01127169
-0.08275001 0.06132416 0.009875879
-0.08225001 0.06130172 0.009622104
-0.07275 0.06114463 0.00784561
-0.07225 0.0612344 0.008860752
-0.07175 0.0612905 0.009495206
-0.07125001 0.06132416 0.009875879
-0.07075001 0.06130172 0.009622104
-0.07025 0.06130172 0.009622104
-0.06975 0.06131294 0.00974898
-0.06925 0.06131294 0.00974898
-0.06875 0.06132416 0.009875879
-0.06825 0.06139149 0.01063723
-0.06775001 0.06139149 0.01063723
