78.6071 136.929 3162.04
80.8373 138.578 3200.13
83.4036 138.578 3200.13
85.9699 138.578 3200.13
88.5361 138.578 3200.13
91.1024 138.578 3200.13
93.6687 138.578 3200.13
96.2349 138.578 3200.13
98.8012 138.578 3200.13
101.367 138.578 3200.13
103.934 138.578 3200.13
106.5 138.578 3200.13
109.066 138.578 3200.13
111.633 138.578 3200.13
114.199 138.578 3200.13
116.765 138.578 3200.13
119.331 138.578 3200.13
121.898 138.578 3200.13
124.464 138.578 3200.13
127.03 138.578 3200.13
129.596 138.578 3200.13
132.163 138.578 3200.13
134.729 138.578 3200.13
137.295 138.578 3200.13
139.861 138.578 3200.13
142.428 138.578 3200.13
144.994 138.578 3200.13
147.56 138.578 3200.13
150.127 138.578 3200.13
152.693 138.578 3200.13
155.259 138.578 3200.13
157.825 138.578 3200.13
160.392 138.578 3200.13
162.958 138.578 3200.13
165.524 138.578 3200.13
168.09 138.578 3200.13
170.657 138.578 3200.13
173.223 138.578 3200.13
175.789 138.578 3200.13
161.216 105.523 2436.8
163.17 105.523 2436.8
165.124 105.523 2436.8
166.527 104.564 2414.65
168.464 104.564 2414.65
174.743 111.67 2578.75
183.543 122.362 2825.65
187.533 125.022 2887.08
189.848 125.022 2887.08
132.088 37.3442 862.373
186.639 113.881 2629.81
185.614 109.543 2529.63
187.643 109.543 2529.63
188.887 108.509 2505.76
190.107 107.495 2482.35
191.306 106.5 2459.36
192.482 105.523 2436.8
185.066 94.2787 2177.14
204.48 115.02 2656.11
206.61 115.02 2656.11
208.74 115.02 2656.11
210.87 115.02 2656.11
213 115.02 2656.11
215.13 115.02 2656.11
216.163 113.881 2629.81
218.272 113.881 2629.81
220.381 113.881 2629.81
222.49 113.881 2629.81
232.058 121.074 2795.91
226.708 113.881 2629.81
225.288 110.596 2553.95
232.17 115.02 2656.11
234.3 115.02 2656.11
236.43 115.02 2656.11
238.56 115.02 2656.11
240.69 115.02 2656.11
230.427 104.564 2414.65
239.625 110.596 2553.95
240.386 109.543 2529.63
241.132 108.509 2505.76
241.864 107.495 2482.35
242.583 106.5 2459.36
243.289 105.523 2436.8
243.982 104.564 2414.65
259.86 115.02 2656.11
261.99 115.02 2656.11
264.12 115.02 2656.11
266.25 115.02 2656.11
268.38 115.02 2656.11
270.51 115.02 2656.11
272.64 115.02 2656.11
274.77 115.02 2656.11
276.9 115.02 2656.11
280.773 116.182 2682.94
282.924 116.182 2682.94
285.076 116.182 2682.94
281.912 112.765 2604.03
284 112.765 2604.03
286.088 112.765 2604.03
301.563 121.074 2795.91
299.737 118.577 2738.26
301.933 118.577 2738.26
304.129 118.577 2738.26
306.325 118.577 2738.26
306.459 117.367 2710.32
308.633 117.367 2710.32
310.806 117.367 2710.32
312.98 117.367 2710.32
317.304 118.577 2738.26
290.973 102.696 2371.53
292.875 102.696 2371.53
293.111 101.788 2350.54
293.342 100.895 2329.92
326.02 117.367 2710.32
328.194 117.367 2710.32
330.367 117.367 2710.32
332.541 117.367 2710.32
334.714 117.367 2710.32
336.888 117.367 2710.32
339.061 117.367 2710.32
341.235 117.367 2710.32
343.408 117.367 2710.32
345.582 117.367 2710.32
347.755 117.367 2710.32
347.47 116.182 2682.94
352.102 117.367 2710.32
354.276 117.367 2710.32
356.449 117.367 2710.32
358.622 117.367 2710.32
360.796 117.367 2710.32
362.969 117.367 2710.32
365.143 117.367 2710.32
364.682 116.182 2682.94
364.23 115.02 2656.11
366.36 115.02 2656.11
365.896 113.881 2629.81
378.789 118.577 2738.26
380.985 118.577 2738.26
383.18 118.577 2738.26
385.376 118.577 2738.26
387.572 118.577 2738.26
389.768 118.577 2738.26
391.964 118.577 2738.26
394.16 118.577 2738.26
396.356 118.577 2738.26
401.594 119.812 2766.78
403.812 119.812 2766.78
406.031 119.812 2766.78
408.25 119.812 2766.78
410.469 119.812 2766.78
412.688 119.812 2766.78
414.906 119.812 2766.78
417.125 119.812 2766.78
419.344 119.812 2766.78
421.562 119.812 2766.78
423.781 119.812 2766.78
426 119.812 2766.78
428.219 119.812 2766.78
430.438 119.812 2766.78
432.656 119.812 2766.78
434.875 119.812 2766.78
437.094 119.812 2766.78
439.312 119.812 2766.78
441.531 119.812 2766.78
443.75 119.812 2766.78
445.969 119.812 2766.78
448.188 119.812 2766.78
450.406 119.812 2766.78
452.625 119.812 2766.78
454.844 119.812 2766.78
457.062 119.812 2766.78
459.281 119.812 2766.78
461.5 119.812 2766.78
463.719 119.812 2766.78
465.938 119.812 2766.78
468.156 119.812 2766.78
470.375 119.812 2766.78
472.594 119.812 2766.78
474.812 119.812 2766.78
477.031 119.812 2766.78
479.25 119.812 2766.78
481.469 119.812 2766.78
483.688 119.812 2766.78
485.906 119.812 2766.78
488.125 119.812 2766.78
490.344 119.812 2766.78
492.562 119.812 2766.78
494.781 119.812 2766.78
497 119.812 2766.78
503.353 121.074 2795.91
505.595 121.074 2795.91
507.837 121.074 2795.91
510.079 121.074 2795.91
512.321 121.074 2795.91
514.563 121.074 2795.91
516.805 121.074 2795.91
519.047 121.074 2795.91
521.289 121.074 2795.91
523.532 121.074 2795.91
525.774 121.074 2795.91
528.016 121.074 2795.91
530.258 121.074 2795.91
532.5 121.074 2795.91
534.742 121.074 2795.91
536.984 121.074 2795.91
539.226 121.074 2795.91
541.468 121.074 2795.91
543.711 121.074 2795.91
545.953 121.074 2795.91
548.195 121.074 2795.91
550.437 121.074 2795.91
552.679 121.074 2795.91
554.921 121.074 2795.91
557.163 121.074 2795.91
559.405 121.074 2795.91
561.647 121.074 2795.91
563.889 121.074 2795.91
566.132 121.074 2795.91
568.374 121.074 2795.91
570.616 121.074 2795.91
572.858 121.074 2795.91
575.1 121.074 2795.91
423.734 81.5745 1883.77
268.165 41.3741 955.435
268.932 41.3741 955.435
269.113 41.2258 952.011
263.679 39.6621 915.9
573.796 117.367 2710.32
575.969 117.367 2710.32
578.143 117.367 2710.32
575.53 116.182 2682.94
577.682 116.182 2682.94
-202.694 72.8323 1713.62
-203.318 73.3052 1724.75
-203.951 73.7843 1736.02
-204.592 74.2697 1747.44
-205.242 74.7616 1759.01
-205.9 75.26 1770.74
-206.567 75.7651 1782.62
-207.243 76.277 1794.67
-207.929 76.7959 1806.88
-208.623 77.3219 1819.25
-209.328 77.8552 1831.8
-210.042 78.3958 1844.52
-210.766 78.9441 1857.42
-211.5 79.5 1870.5
-212.245 80.0638 1883.77
-213 80.6357 1897.22
-213.766 81.2158 1910.87
-214.543 81.8043 1924.72
-215.332 82.4015 1938.77
-216.132 83.0074 1953.02
-216.944 83.6222 1967.49
-213 83.0074 1953.02
-87.3969 50.6233 1191.08
-86.4417 50.6233 1191.08
-102.344 55.0683 1295.66
-101.305 55.0683 1295.66
-192 79.5 1870.5
-67.7727 46.6488 1097.57
-66.8926 46.6488 1097.57
-332.953 118.832 2795.91
-349.929 124.055 2918.8
-342.652 122.707 2887.08
-335.532 121.387 2856.03
-319.5 117.594 2766.78
-296.302 111.772 2629.81
-294.193 111.772 2629.81
-292.084 111.772 2629.81
-289.975 111.772 2629.81
-287.866 111.772 2629.81
-285.757 111.772 2629.81
-283.649 111.772 2629.81
-281.54 111.772 2629.81
-279.431 111.772 2629.81
-277.322 111.772 2629.81
-275.213 111.772 2629.81
-273.104 111.772 2629.81
-270.995 111.772 2629.81
-268.886 111.772 2629.81
-266.777 111.772 2629.81
-264.668 111.772 2629.81
-262.559 111.772 2629.81
-260.45 111.772 2629.81
-261.99 112.89 2656.11
-256.233 111.772 2629.81
-254.124 111.772 2629.81
-252.015 111.772 2629.81
-249.906 111.772 2629.81
-247.797 111.772 2629.81
-249.21 112.89 2656.11
-247.08 112.89 2656.11
-244.95 112.89 2656.11
-242.82 112.89 2656.11
-240.69 112.89 2656.11
-238.56 112.89 2656.11
-236.43 112.89 2656.11
-24.0747 43.2529 1017.67
-278.352 128.284 3018.31
-275.932 128.284 3018.31
-273.511 128.284 3018.31
-271.091 128.284 3018.31
-268.67 128.284 3018.31
-266.25 128.284 3018.31
-263.83 128.284 3018.31
-261.409 128.284 3018.31
-258.989 128.284 3018.31
-256.568 128.284 3018.31
-258.293 129.759 3053
-251.727 128.284 3018.31
-253.397 129.759 3053
-250.948 129.759 3053
-244.466 128.284 3018.31
-242.045 128.284 3018.31
-239.625 128.284 3018.31
-237.205 128.284 3018.31
-238.707 129.759 3053
-236.259 129.759 3053
-233.81 129.759 3053
-231.362 129.759 3053
-228.914 129.759 3053
-226.466 129.759 3053
-224.017 129.759 3053
-221.569 129.759 3053
-219.121 129.759 3053
-216.672 129.759 3053
-214.224 129.759 3053
-211.776 129.759 3053
-209.328 129.759 3053
-206.879 129.759 3053
-204.431 129.759 3053
-201.983 129.759 3053
-199.534 129.759 3053
-197.086 129.759 3053
-194.638 129.759 3053
-192.19 129.759 3053
-189.741 129.759 3053
-187.293 129.759 3053
-184.845 129.759 3053
-182.397 129.759 3053
-179.948 129.759 3053
-177.5 129.759 3053
-175.052 129.759 3053
-172.603 129.759 3053
-170.155 129.759 3053
-167.707 129.759 3053
-168.419 131.267 3088.5
-165.942 131.267 3088.5
-163.465 131.267 3088.5
-160.988 131.267 3088.5
-158.512 131.267 3088.5
-156.035 131.267 3088.5
-153.558 131.267 3088.5
-151.081 131.267 3088.5
-148.605 131.267 3088.5
-146.128 131.267 3088.5
-143.651 131.267 3088.5
-141.174 131.267 3088.5
-138.698 131.267 3088.5
-136.221 131.267 3088.5
-133.744 131.267 3088.5
-131.267 131.267 3088.5
-128.791 131.267 3088.5
-126.314 131.267 3088.5
-123.837 131.267 3088.5
-121.36 131.267 3088.5
-118.884 131.267 3088.5
-116.407 131.267 3088.5
-113.93 131.267 3088.5
-111.453 131.267 3088.5
-108.977 131.267 3088.5
-109.006 132.812 3124.84
-104.023 131.267 3088.5
-103.994 132.812 3124.84
-99.0698 131.267 3088.5
-96.593 131.267 3088.5
-94.1163 131.267 3088.5
-91.6395 131.267 3088.5
-89.1628 131.267 3088.5
-86.686 131.267 3088.5
-86.4529 132.812 3124.84
-83.9471 132.812 3124.84
-79.2558 131.267 3088.5
-76.7791 131.267 3088.5
-74.3023 131.267 3088.5
-71.8256 131.267 3088.5
-71.4176 132.812 3124.84
-66.8721 131.267 3088.5
-66.4059 132.812 3124.84
-63.9 132.812 3124.84
-61.3941 132.812 3124.84
-58.8882 132.812 3124.84
-56.3824 132.812 3124.84
-53.8765 132.812 3124.84
-51.3706 132.812 3124.84
-48.8647 132.812 3124.84
-46.3588 132.812 3124.84
-43.8529 132.812 3124.84
-43.1071 134.393 3162.04
-40.5714 134.393 3162.04
36.3208 65.2543 1535.32
-56.8973 154.644 3638.51
-32.9643 134.393 3162.04
-28.8176 132.812 3124.84
-26.3118 132.812 3124.84
-23.8059 132.812 3124.84
-21.3 132.812 3124.84
-50.1176 166.015 3906.04
-16.2882 132.812 3124.84
-13.7824 132.812 3124.84
-11.2765 132.812 3124.84
-8.77059 132.812 3124.84
-6.26471 132.812 3124.84
-3.75882 132.812 3124.84
-1.25294 132.812 3124.84
1.25294 132.812 3124.84
3.75882 132.812 3124.84
11.8333 125.433 2951.23
14.2 125.433 2951.23
10.1429 134.393 3162.04
12.6786 134.393 3162.04
15.2143 134.393 3162.04
52.8669 81.2158 1910.87
20.2857 134.393 3162.04
23.8059 132.812 3124.84
26.3118 132.812 3124.84
28.8176 132.812 3124.84
31.3235 132.812 3124.84
76.0714 55.6108 1308.43
76.9752 55.8861 1314.91
38.0357 134.393 3162.04
40.5714 134.393 3162.04
43.1071 134.393 3162.04
45.6429 134.393 3162.04
48.1786 134.393 3162.04
50.7143 134.393 3162.04
53.25 134.393 3162.04
55.7857 134.393 3162.04
58.3214 134.393 3162.04
60.8571 134.393 3162.04
63.3929 134.393 3162.04
65.9286 134.393 3162.04
68.4643 134.393 3162.04
71 134.393 3162.04
88.5195 73.3052 1724.75
76.0714 134.393 3162.04
78.6071 134.393 3162.04
80.8373 136.012 3200.13
83.4036 136.012 3200.13
85.9699 136.012 3200.13
88.5361 136.012 3200.13
91.1024 136.012 3200.13
93.6687 136.012 3200.13
96.2349 136.012 3200.13
98.8012 136.012 3200.13
101.367 136.012 3200.13
103.934 136.012 3200.13
106.5 136.012 3200.13
109.066 136.012 3200.13
111.633 136.012 3200.13
114.199 136.012 3200.13
116.765 136.012 3200.13
119.331 136.012 3200.13
121.898 136.012 3200.13
124.464 136.012 3200.13
127.03 136.012 3200.13
129.596 136.012 3200.13
132.163 136.012 3200.13
134.729 136.012 3200.13
137.295 136.012 3200.13
139.861 136.012 3200.13
142.428 136.012 3200.13
144.994 136.012 3200.13
147.56 136.012 3200.13
150.127 136.012 3200.13
152.693 136.012 3200.13
155.259 136.012 3200.13
157.825 136.012 3200.13
160.392 136.012 3200.13
162.958 136.012 3200.13
165.524 136.012 3200.13
168.09 136.012 3200.13
170.657 136.012 3200.13
173.223 136.012 3200.13
175.789 136.012 3200.13
161.216 103.569 2436.8
163.17 103.569 2436.8
162.065 98.1652 2309.66
166.527 102.627 2414.65
168.464 102.627 2414.65
181.277 120.096 2825.65
183.543 120.096 2825.65
187.533 122.707 2887.08
189.848 122.707 2887.08
173.859 96.4872 2270.18
176.276 97.319 2289.75
181.338 101.703 2392.89
188.423 108.548 2553.95
189.671 107.514 2529.63
190.107 105.505 2482.35
191.306 104.528 2459.36
193.278 104.528 2459.36
196.925 106.5 2505.76
204.48 112.89 2656.11
206.61 112.89 2656.11
208.74 112.89 2656.11
210.87 112.89 2656.11
211.946 111.772 2629.81
214.054 111.772 2629.81
216.163 111.772 2629.81
218.272 111.772 2629.81
220.381 111.772 2629.81
222.49 111.772 2629.81
232.058 118.832 2795.91
232.969 117.594 2766.78
233.861 116.381 2738.26
232.17 112.89 2656.11
234.3 112.89 2656.11
236.43 112.89 2656.11
238.56 112.89 2656.11
238.059 110.676 2604.03
238.85 109.602 2578.75
239.625 108.548 2553.95
240.386 107.514 2529.63
241.132 106.5 2505.76
241.864 105.505 2482.35
242.583 104.528 2459.36
242.045 102.627 2414.65
243.982 102.627 2414.65
259.86 112.89 2656.11
261.99 112.89 2656.11
264.12 112.89 2656.11
266.25 112.89 2656.11
268.38 112.89 2656.11
270.51 112.89 2656.11
272.64 112.89 2656.11
274.77 112.89 2656.11
276.9 112.89 2656.11
279.03 112.89 2656.11
279.431 111.772 2629.81
279.824 110.676 2604.03
281.912 110.676 2604.03
280.587 108.548 2553.95
280.957 107.514 2529.63
301.563 118.832 2795.91
299.737 116.381 2738.26
301.933 116.381 2738.26
302.112 115.194 2710.32
304.286 115.194 2710.32
306.459 115.194 2710.32
308.633 115.194 2710.32
310.806 115.194 2710.32
315.108 116.381 2738.26
290.716 101.703 2392.89
292.635 101.703 2392.89
319.5 115.194 2710.32
321.673 115.194 2710.32
323.847 115.194 2710.32
323.803 114.03 2682.94
328.194 115.194 2710.32
330.367 115.194 2710.32
332.541 115.194 2710.32
334.714 115.194 2710.32
336.888 115.194 2710.32
339.061 115.194 2710.32
341.235 115.194 2710.32
343.408 115.194 2710.32
345.582 115.194 2710.32
347.755 115.194 2710.32
347.47 114.03 2682.94
349.621 114.03 2682.94
351.773 114.03 2682.94
353.924 114.03 2682.94
358.622 115.194 2710.32
360.796 115.194 2710.32
362.969 115.194 2710.32
365.143 115.194 2710.32
364.682 114.03 2682.94
364.23 112.89 2656.11
366.36 112.89 2656.11
368.49 112.89 2656.11
378.789 116.381 2738.26
380.985 116.381 2738.26
383.18 116.381 2738.26
385.376 116.381 2738.26
387.572 116.381 2738.26
389.768 116.381 2738.26
391.964 116.381 2738.26
394.16 116.381 2738.26
396.356 116.381 2738.26
401.594 117.594 2766.78
403.812 117.594 2766.78
406.031 117.594 2766.78
408.25 117.594 2766.78
410.469 117.594 2766.78
412.688 117.594 2766.78
414.906 117.594 2766.78
417.125 117.594 2766.78
419.344 117.594 2766.78
421.562 117.594 2766.78
423.781 117.594 2766.78
426 117.594 2766.78
428.219 117.594 2766.78
430.438 117.594 2766.78
432.656 117.594 2766.78
434.875 117.594 2766.78
437.094 117.594 2766.78
439.312 117.594 2766.78
441.531 117.594 2766.78
443.75 117.594 2766.78
445.969 117.594 2766.78
448.188 117.594 2766.78
450.406 117.594 2766.78
452.625 117.594 2766.78
454.844 117.594 2766.78
457.062 117.594 2766.78
459.281 117.594 2766.78
461.5 117.594 2766.78
463.719 117.594 2766.78
465.938 117.594 2766.78
468.156 117.594 2766.78
470.375 117.594 2766.78
472.594 117.594 2766.78
474.812 117.594 2766.78
477.031 117.594 2766.78
479.25 117.594 2766.78
481.469 117.594 2766.78
483.688 117.594 2766.78
485.906 117.594 2766.78
488.125 117.594 2766.78
490.344 117.594 2766.78
492.562 117.594 2766.78
494.781 117.594 2766.78
497 117.594 2766.78
499.219 117.594 2766.78
501.438 117.594 2766.78
503.656 117.594 2766.78
510.079 118.832 2795.91
508.094 117.594 2766.78
514.563 118.832 2795.91
516.805 118.832 2795.91
519.047 118.832 2795.91
521.289 118.832 2795.91
523.532 118.832 2795.91
525.774 118.832 2795.91
528.016 118.832 2795.91
530.258 118.832 2795.91
532.5 118.832 2795.91
534.742 118.832 2795.91
536.984 118.832 2795.91
539.226 118.832 2795.91
541.468 118.832 2795.91
543.711 118.832 2795.91
545.953 118.832 2795.91
548.195 118.832 2795.91
550.437 118.832 2795.91
552.679 118.832 2795.91
554.921 118.832 2795.91
557.163 118.832 2795.91
559.405 118.832 2795.91
561.647 118.832 2795.91
563.889 118.832 2795.91
566.132 118.832 2795.91
568.374 118.832 2795.91
570.616 118.832 2795.91
416.318 78.9441 1857.42
662.962 141.113 3320.14
423.734 80.0638 1883.77
290.693 46.2664 1088.57
301.981 48.8701 1149.83
262.945 38.9276 915.9
571.622 115.194 2710.32
573.796 115.194 2710.32
575.969 115.194 2710.32
578.143 115.194 2710.32
580.316 115.194 2710.32
582.49 115.194 2710.32
-43.2656 34.6125 830.034
-43.0674 34.721 832.636
-42.8679 34.8302 835.255
-48.0294 36.1961 868.01
-47.3333 36.1961 868.01
-47.1393 36.3148 870.856
-46.9441 36.4342 873.72
-47.7658 36.7973 882.429
-47.57 36.92 885.37
-47.3729 37.0435 888.331
-47.1745 37.1678 891.312
-46.9747 37.2929 894.313
-46.7736 37.4189 897.334
-46.5712 37.5458 900.376
-46.3673 37.6735 903.439
-46.1621 37.802 906.522
-44.9184 37.6735 903.439
-44.7082 37.802 906.522
-44.4966 37.9315 909.627
-44.2835 38.0619 912.753
-43.5515 38.0619 912.753
-127.113 59.5484 1428.02
-99.4 52.7429 1264.81
-98.3857 52.7429 1264.81
-149.865 66.3234 1590.49
-96.3571 52.7429 1264.81
-214.614 83.9091 2012.2
-67.7727 45.7686 1097.57
-67.612 45.9585 1102.12
-332.953 116.589 2795.91
-349.929 121.714 2918.8
-342.652 120.391 2887.08
-335.532 119.097 2856.03
-302.46 110.76 2656.11
-296.302 109.663 2629.81
-294.193 109.663 2629.81
-292.084 109.663 2629.81
-289.975 109.663 2629.81
-287.866 109.663 2629.81
-285.757 109.663 2629.81
-283.649 109.663 2629.81
-281.54 109.663 2629.81
-279.431 109.663 2629.81
-277.322 109.663 2629.81
-275.213 109.663 2629.81
-273.104 109.663 2629.81
-270.995 109.663 2629.81
-268.886 109.663 2629.81
-266.777 109.663 2629.81
-264.668 109.663 2629.81
-262.559 109.663 2629.81
-260.45 109.663 2629.81
-258.342 109.663 2629.81
-256.233 109.663 2629.81
-254.124 109.663 2629.81
-252.015 109.663 2629.81
-249.906 109.663 2629.81
-247.797 109.663 2629.81
-249.21 110.76 2656.11
-247.08 110.76 2656.11
-244.95 110.76 2656.11
-242.82 110.76 2656.11
-240.69 110.76 2656.11
-238.56 110.76 2656.11
-236.43 110.76 2656.11
-234.3 110.76 2656.11
-278.352 125.864 3018.31
-280.328 127.31 3053
-273.511 125.864 3018.31
-271.091 125.864 3018.31
-268.67 125.864 3018.31
-266.25 125.864 3018.31
-263.83 125.864 3018.31
-261.409 125.864 3018.31
-258.989 125.864 3018.31
-256.568 125.864 3018.31
-258.293 127.31 3053
-251.727 125.864 3018.31
-253.397 127.31 3053
-250.948 127.31 3053
-248.5 127.31 3053
-246.052 127.31 3053
-243.603 127.31 3053
-241.155 127.31 3053
-238.707 127.31 3053
-236.259 127.31 3053
-233.81 127.31 3053
-231.362 127.31 3053
-228.914 127.31 3053
-226.466 127.31 3053
-224.017 127.31 3053
-221.569 127.31 3053
-219.121 127.31 3053
-216.672 127.31 3053
-214.224 127.31 3053
-211.776 127.31 3053
-209.328 127.31 3053
-206.879 127.31 3053
-204.431 127.31 3053
-201.983 127.31 3053
-199.534 127.31 3053
-197.086 127.31 3053
-194.638 127.31 3053
-192.19 127.31 3053
-189.741 127.31 3053
-187.293 127.31 3053
-184.845 127.31 3053
-182.397 127.31 3053
-179.948 127.31 3053
-177.5 127.31 3053
-175.052 127.31 3053
-172.603 127.31 3053
-170.155 127.31 3053
-170.895 128.791 3088.5
-168.419 128.791 3088.5
-165.942 128.791 3088.5
-163.465 128.791 3088.5
-160.988 128.791 3088.5
-158.512 128.791 3088.5
-156.035 128.791 3088.5
-153.558 128.791 3088.5
-151.081 128.791 3088.5
-148.605 128.791 3088.5
-146.128 128.791 3088.5
-143.651 128.791 3088.5
-141.174 128.791 3088.5
-138.698 128.791 3088.5
-136.221 128.791 3088.5
-133.744 128.791 3088.5
-131.267 128.791 3088.5
-128.791 128.791 3088.5
-126.314 128.791 3088.5
-123.837 128.791 3088.5
-121.36 128.791 3088.5
-118.884 128.791 3088.5
-116.407 128.791 3088.5
-113.93 128.791 3088.5
-111.453 128.791 3088.5
-108.977 128.791 3088.5
-109.006 130.306 3124.84
-104.023 128.791 3088.5
-103.994 130.306 3124.84
-99.0698 128.791 3088.5
-96.593 128.791 3088.5
-94.1163 128.791 3088.5
-91.6395 128.791 3088.5
-89.1628 128.791 3088.5
-88.9588 130.306 3124.84
-86.4529 130.306 3124.84
-83.9471 130.306 3124.84
-79.2558 128.791 3088.5
-76.7791 128.791 3088.5
-74.3023 128.791 3088.5
-73.9235 130.306 3124.84
-71.4176 130.306 3124.84
-73.1386 133.446 3200.13
-66.4059 130.306 3124.84
-63.9 130.306 3124.84
-61.3941 130.306 3124.84
-58.8882 130.306 3124.84
-56.3824 130.306 3124.84
-53.8765 130.306 3124.84
-51.3706 130.306 3124.84
-48.8647 130.306 3124.84
-46.3588 130.306 3124.84
-45.6429 131.857 3162.04
-43.1071 131.857 3162.04
-40.5714 131.857 3162.04
-43.3889 136.741 3279.15
-35.5 131.857 3162.04
-32.9643 131.857 3162.04
-30.4286 131.857 3162.04
-59.5147 162.882 3906.04
-23.8059 130.306 3124.84
-21.3 130.306 3124.84
-15.9138 127.31 3053
-16.2882 130.306 3124.84
-13.7824 130.306 3124.84
-11.2765 130.306 3124.84
-8.77059 130.306 3124.84
-6.26471 130.306 3124.84
-3.75882 130.306 3124.84
-1.25294 130.306 3124.84
1.25294 130.306 3124.84
3.75882 130.306 3124.84
6.26471 130.306 3124.84
22.5909 111.879 2682.94
10.1429 131.857 3162.04
12.6786 131.857 3162.04
15.2143 131.857 3162.04
17.75 131.857 3162.04
35.5 108.588 2604.03
23.8059 130.306 3124.84
26.3118 130.306 3124.84
28.8176 130.306 3124.84
75.0222 54.5616 1308.43
32.9643 131.857 3162.04
77.6884 53.5072 1283.14
38.0357 131.857 3162.04
40.5714 131.857 3162.04
43.1071 131.857 3162.04
45.6429 131.857 3162.04
48.1786 131.857 3162.04
50.7143 131.857 3162.04
53.25 131.857 3162.04
55.7857 131.857 3162.04
58.3214 131.857 3162.04
60.8571 131.857 3162.04
63.3929 131.857 3162.04
65.9286 131.857 3162.04
68.4643 131.857 3162.04
71 131.857 3162.04
73.5357 131.857 3162.04
76.0714 131.857 3162.04
78.6071 131.857 3162.04
80.8373 133.446 3200.13
83.4036 133.446 3200.13
85.9699 133.446 3200.13
88.5361 133.446 3200.13
91.1024 133.446 3200.13
93.6687 133.446 3200.13
96.2349 133.446 3200.13
98.8012 133.446 3200.13
101.367 133.446 3200.13
103.934 133.446 3200.13
106.5 133.446 3200.13
109.066 133.446 3200.13
111.633 133.446 3200.13
114.199 133.446 3200.13
116.765 133.446 3200.13
119.331 133.446 3200.13
121.898 133.446 3200.13
124.464 133.446 3200.13
127.03 133.446 3200.13
129.596 133.446 3200.13
132.163 133.446 3200.13
134.729 133.446 3200.13
137.295 133.446 3200.13
139.861 133.446 3200.13
142.428 133.446 3200.13
144.994 133.446 3200.13
147.56 133.446 3200.13
150.127 133.446 3200.13
152.693 133.446 3200.13
155.259 133.446 3200.13
157.825 133.446 3200.13
160.392 133.446 3200.13
162.958 133.446 3200.13
165.524 133.446 3200.13
168.09 133.446 3200.13
170.657 133.446 3200.13
173.223 133.446 3200.13
167.681 117.83 2825.65
158.816 97.1579 2329.92
160.684 97.1579 2329.92
162.065 96.313 2309.66
128.364 36.6755 879.507
128.995 36.5545 876.604
181.277 117.83 2825.65
183.543 117.83 2825.65
170.218 94.6667 2270.18
172.038 94.6667 2270.18
174.44 95.4828 2289.75
176.276 95.4828 2289.75
187.941 108.588 2604.03
189.218 107.534 2578.75
189.671 105.486 2529.63
190.107 103.514 2482.35
135.669 35.2739 845.895
182.695 90.0488 2159.44
202.35 110.76 2656.11
204.48 110.76 2656.11
206.61 110.76 2656.11
208.74 110.76 2656.11
210.87 110.76 2656.11
211.946 109.663 2629.81
214.054 109.663 2629.81
216.163 109.663 2629.81
218.272 109.663 2629.81
220.381 109.663 2629.81
222.49 109.663 2629.81
224.599 109.663 2629.81
232.969 115.375 2766.78
236.542 116.589 2795.91
232.17 110.76 2656.11
234.3 110.76 2656.11
236.43 110.76 2656.11
238.56 110.76 2656.11
240.69 110.76 2656.11
238.85 107.534 2578.75
239.625 106.5 2553.95
240.386 105.486 2529.63
243.721 106.5 2553.95
241.864 103.514 2482.35
242.583 102.556 2459.36
255.6 110.76 2656.11
243.982 100.691 2414.65
259.86 110.76 2656.11
261.99 110.76 2656.11
264.12 110.76 2656.11
266.25 110.76 2656.11
268.38 110.76 2656.11
270.51 110.76 2656.11
272.64 110.76 2656.11
274.77 110.76 2656.11
276.9 110.76 2656.11
279.03 110.76 2656.11
281.16 110.76 2656.11
298.663 120.391 2887.08
296.84 117.83 2825.65
301.177 119.097 2856.03
301.372 117.83 2825.65
297.541 114.186 2738.26
299.737 114.186 2738.26
299.939 113.02 2710.32
302.112 113.02 2710.32
304.286 113.02 2710.32
306.459 113.02 2710.32
308.633 113.02 2710.32
310.806 113.02 2710.32
312.98 113.02 2710.32
290.716 99.7838 2392.89
317.327 113.02 2710.32
319.5 113.02 2710.32
319.5 111.879 2682.94
321.652 111.879 2682.94
323.803 111.879 2682.94
328.194 113.02 2710.32
330.367 113.02 2710.32
332.541 113.02 2710.32
334.714 113.02 2710.32
336.888 113.02 2710.32
339.061 113.02 2710.32
341.235 113.02 2710.32
343.408 113.02 2710.32
345.582 113.02 2710.32
347.755 113.02 2710.32
347.47 111.879 2682.94
349.621 111.879 2682.94
351.773 111.879 2682.94
353.924 111.879 2682.94
353.58 110.76 2656.11
355.71 110.76 2656.11
357.84 110.76 2656.11
365.143 113.02 2710.32
362.1 110.76 2656.11
364.23 110.76 2656.11
366.36 110.76 2656.11
368.49 110.76 2656.11
378.789 114.186 2738.26
380.985 114.186 2738.26
383.18 114.186 2738.26
385.376 114.186 2738.26
387.572 114.186 2738.26
389.768 114.186 2738.26
391.964 114.186 2738.26
394.16 114.186 2738.26
396.356 114.186 2738.26
398.552 114.186 2738.26
400.747 114.186 2738.26
402.943 114.186 2738.26
405.139 114.186 2738.26
410.469 115.375 2766.78
412.688 115.375 2766.78
414.906 115.375 2766.78
417.125 115.375 2766.78
419.344 115.375 2766.78
421.562 115.375 2766.78
420.51 114.186 2738.26
422.706 114.186 2738.26
428.219 115.375 2766.78
430.438 115.375 2766.78
432.656 115.375 2766.78
434.875 115.375 2766.78
437.094 115.375 2766.78
439.312 115.375 2766.78
441.531 115.375 2766.78
443.75 115.375 2766.78
445.969 115.375 2766.78
448.188 115.375 2766.78
450.406 115.375 2766.78
452.625 115.375 2766.78
454.844 115.375 2766.78
457.062 115.375 2766.78
459.281 115.375 2766.78
461.5 115.375 2766.78
463.719 115.375 2766.78
465.938 115.375 2766.78
468.156 115.375 2766.78
470.375 115.375 2766.78
472.594 115.375 2766.78
474.812 115.375 2766.78
477.031 115.375 2766.78
479.25 115.375 2766.78
481.469 115.375 2766.78
483.688 115.375 2766.78
485.906 115.375 2766.78
488.125 115.375 2766.78
490.344 115.375 2766.78
492.562 115.375 2766.78
494.781 115.375 2766.78
497 115.375 2766.78
499.219 115.375 2766.78
501.438 115.375 2766.78
503.656 115.375 2766.78
505.875 115.375 2766.78
508.094 115.375 2766.78
510.312 115.375 2766.78
516.805 116.589 2795.91
519.047 116.589 2795.91
521.289 116.589 2795.91
523.532 116.589 2795.91
525.774 116.589 2795.91
528.016 116.589 2795.91
530.258 116.589 2795.91
532.5 116.589 2795.91
534.742 116.589 2795.91
536.984 116.589 2795.91
539.226 116.589 2795.91
541.468 116.589 2795.91
543.711 116.589 2795.91
545.953 116.589 2795.91
548.195 116.589 2795.91
550.437 116.589 2795.91
552.679 116.589 2795.91
554.921 116.589 2795.91
557.163 116.589 2795.91
559.405 116.589 2795.91
561.647 116.589 2795.91
563.889 116.589 2795.91
566.132 116.589 2795.91
568.374 116.589 2795.91
570.616 116.589 2795.91
572.858 116.589 2795.91
468.427 90.0488 2159.44
614.795 125.864 3018.31
290.693 45.3934 1088.57
369.035 64.3953 1544.25
305.487 48.5789 1164.96
571.622 113.02 2710.32
573.796 113.02 2710.32
575.969 113.02 2710.32
578.143 113.02 2710.32
580.316 113.02 2710.32
582.49 113.02 2710.32
-131.933 54.0448 1321.45
-132.06 54.315 1328.06
-132.188 54.5879 1334.73
-48.0294 35.5 868.01
-47.8377 35.6164 870.856
-47.6447 35.7336 873.72
-47.4505 35.8515 876.604
-47.255 35.9702 879.507
-47.0581 36.0897 882.429
-47.3729 36.3311 888.331
-46.6605 36.3311 888.331
-46.9747 36.5758 894.313
-46.7736 36.6993 897.334
-46.5712 36.8237 900.376
-46.3673 36.949 903.439
-46.1621 37.0751 906.522
-45.4352 37.0751 906.522
-44.7082 37.0751 906.522
-45.0155 37.3299 912.753
-134.588 59.6868 1459.4
-134.743 60.0166 1467.46
-133.566 60.0166 1467.46
-132.39 60.0166 1467.46
-99.366 51.9761 1270.87
-96.4052 51.4834 1258.82
-96.3571 51.7286 1264.81
-106.5 54.5879 1334.73
-342.16 115.564 2825.65
-339.894 115.564 2825.65
-332.953 114.347 2795.91
-382.147 127.8 3124.84
-342.652 118.076 2887.08
-340.337 118.076 2887.08
-302.46 108.63 2656.11
-296.302 107.554 2629.81
-294.193 107.554 2629.81
-292.084 107.554 2629.81
-289.975 107.554 2629.81
-287.866 107.554 2629.81
-285.757 107.554 2629.81
-283.649 107.554 2629.81
-281.54 107.554 2629.81
-279.431 107.554 2629.81
-277.322 107.554 2629.81
-275.213 107.554 2629.81
-273.104 107.554 2629.81
-270.995 107.554 2629.81
-268.886 107.554 2629.81
-266.777 107.554 2629.81
-264.668 107.554 2629.81
-262.559 107.554 2629.81
-260.45 107.554 2629.81
-258.342 107.554 2629.81
-256.233 107.554 2629.81
-254.124 107.554 2629.81
-252.015 107.554 2629.81
-249.906 107.554 2629.81
-251.34 108.63 2656.11
-249.21 108.63 2656.11
-247.08 108.63 2656.11
-244.95 108.63 2656.11
-242.82 108.63 2656.11
-240.69 108.63 2656.11
-238.56 108.63 2656.11
-236.43 108.63 2656.11
-234.3 108.63 2656.11
-278.352 123.443 3018.31
-275.932 123.443 3018.31
-273.511 123.443 3018.31
-271.091 123.443 3018.31
-268.67 123.443 3018.31
-266.25 123.443 3018.31
-263.83 123.443 3018.31
-261.409 123.443 3018.31
-258.989 123.443 3018.31
-256.568 123.443 3018.31
-254.148 123.443 3018.31
-268.786 129.321 3162.04
-266.25 129.321 3162.04
-246.886 123.443 3018.31
-248.5 124.862 3053
-246.052 124.862 3053
-243.603 124.862 3053
-241.155 124.862 3053
-238.707 124.862 3053
-236.259 124.862 3053
-233.81 124.862 3053
-231.362 124.862 3053
-228.914 124.862 3053
-226.466 124.862 3053
-224.017 124.862 3053
-221.569 124.862 3053
-219.121 124.862 3053
-216.672 124.862 3053
-214.224 124.862 3053
-211.776 124.862 3053
-209.328 124.862 3053
-206.879 124.862 3053
-204.431 124.862 3053
-201.983 124.862 3053
-199.534 124.862 3053
-197.086 124.862 3053
-194.638 124.862 3053
-192.19 124.862 3053
-189.741 124.862 3053
-187.293 124.862 3053
-184.845 124.862 3053
-182.397 124.862 3053
-179.948 124.862 3053
-177.5 124.862 3053
-175.052 124.862 3053
-172.603 124.862 3053
-170.155 124.862 3053
-170.895 126.314 3088.5
-165.259 124.862 3053
-165.942 126.314 3088.5
-163.465 126.314 3088.5
-160.988 126.314 3088.5
-158.512 126.314 3088.5
-156.035 126.314 3088.5
-153.558 126.314 3088.5
-151.081 126.314 3088.5
-148.605 126.314 3088.5
-146.128 126.314 3088.5
-143.651 126.314 3088.5
-141.174 126.314 3088.5
-138.698 126.314 3088.5
-136.221 126.314 3088.5
-133.744 126.314 3088.5
-131.267 126.314 3088.5
-128.791 126.314 3088.5
-126.314 126.314 3088.5
-123.837 126.314 3088.5
-121.36 126.314 3088.5
-118.884 126.314 3088.5
-116.407 126.314 3088.5
-113.93 126.314 3088.5
-111.453 126.314 3088.5
-108.977 126.314 3088.5
-73.0882 106.5 2604.03
-104.023 126.314 3088.5
-103.994 127.8 3124.84
-99.0698 126.314 3088.5
-96.593 126.314 3088.5
-94.1163 126.314 3088.5
-91.6395 126.314 3088.5
-89.1628 126.314 3088.5
-86.686 126.314 3088.5
-86.4529 127.8 3124.84
-81.7326 126.314 3088.5
-79.2558 126.314 3088.5
-76.7791 126.314 3088.5
-74.3023 126.314 3088.5
-73.9235 127.8 3124.84
-71.4176 127.8 3124.84
-68.9118 127.8 3124.84
-66.4059 127.8 3124.84
-63.9 127.8 3124.84
-61.3941 127.8 3124.84
-58.8882 127.8 3124.84
-56.3824 127.8 3124.84
-53.8765 127.8 3124.84
-51.3706 127.8 3124.84
-48.8647 127.8 3124.84
-46.3588 127.8 3124.84
-43.8529 127.8 3124.84
-41.3471 127.8 3124.84
-38.8412 127.8 3124.84
-36.3353 127.8 3124.84
-33.8294 127.8 3124.84
-32.9643 129.321 3162.04
-30.4286 129.321 3162.04
-26.3118 127.8 3124.84
-23.8059 127.8 3124.84
-21.3 127.8 3124.84
-18.7941 127.8 3124.84
-16.2882 127.8 3124.84
-13.7824 127.8 3124.84
-11.2765 127.8 3124.84
-8.77059 127.8 3124.84
-6.26471 127.8 3124.84
-3.75882 127.8 3124.84
-1.25294 127.8 3124.84
1.25294 127.8 3124.84
3.75882 127.8 3124.84
6.26471 127.8 3124.84
7.60714 129.321 3162.04
10.1429 129.321 3162.04
12.6786 129.321 3162.04
15.2143 129.321 3162.04
18.7941 127.8 3124.84
20.2857 129.321 3162.04
23.8059 127.8 3124.84
26.3118 127.8 3124.84
28.8176 127.8 3124.84
31.3235 127.8 3124.84
32.9643 129.321 3162.04
77.6884 52.4783 1283.14
38.0357 129.321 3162.04
40.5714 129.321 3162.04
43.1071 129.321 3162.04
45.6429 129.321 3162.04
48.1786 129.321 3162.04
50.7143 129.321 3162.04
53.25 129.321 3162.04
55.7857 129.321 3162.04
58.3214 129.321 3162.04
60.8571 129.321 3162.04
63.3929 129.321 3162.04
65.9286 129.321 3162.04
68.4643 129.321 3162.04
71 129.321 3162.04
81.9956 96.1327 2350.54
76.4294 127.8 3124.84
78.2711 130.88 3200.13
80.5244 132.476 3239.16
83.4036 130.88 3200.13
85.9699 130.88 3200.13
88.5361 130.88 3200.13
91.1024 130.88 3200.13
93.6687 130.88 3200.13
96.2349 130.88 3200.13
98.8012 130.88 3200.13
101.367 130.88 3200.13
103.934 130.88 3200.13
106.5 130.88 3200.13
109.066 130.88 3200.13
111.633 130.88 3200.13
114.199 130.88 3200.13
116.765 130.88 3200.13
119.331 130.88 3200.13
121.898 130.88 3200.13
124.464 130.88 3200.13
127.03 130.88 3200.13
129.596 130.88 3200.13
132.163 130.88 3200.13
134.729 130.88 3200.13
137.295 130.88 3200.13
139.861 130.88 3200.13
142.428 130.88 3200.13
144.994 130.88 3200.13
147.56 130.88 3200.13
150.127 130.88 3200.13
152.693 130.88 3200.13
155.259 130.88 3200.13
157.825 130.88 3200.13
160.392 130.88 3200.13
162.958 130.88 3200.13
165.524 130.88 3200.13
168.09 130.88 3200.13
170.657 130.88 3200.13
173.223 130.88 3200.13
163.441 107.554 2629.81
164.971 106.5 2604.03
173.641 118.076 2887.08
164.591 98.7545 2414.65
165.986 97.8649 2392.89
167.905 97.8649 2392.89
180.489 114.347 2795.91
183.543 115.564 2825.65
170.218 92.8462 2270.18
172.038 92.8462 2270.18
173.859 92.8462 2270.18
186.639 107.554 2629.81
187.941 106.5 2604.03
189.218 105.466 2578.75
190.471 104.452 2553.95
179.828 89.041 2177.14
180.963 88.3171 2159.44
182.695 88.3171 2159.44
202.35 108.63 2656.11
204.48 108.63 2656.11
206.61 108.63 2656.11
208.74 108.63 2656.11
210.87 108.63 2656.11
211.946 107.554 2629.81
214.054 107.554 2629.81
216.163 107.554 2629.81
218.272 107.554 2629.81
220.381 107.554 2629.81
222.49 107.554 2629.81
224.599 107.554 2629.81
226.708 107.554 2629.81
228.817 107.554 2629.81
230.926 107.554 2629.81
234.3 108.63 2656.11
236.43 108.63 2656.11
238.56 108.63 2656.11
240.69 108.63 2656.11
241.47 107.554 2629.81
242.235 106.5 2604.03
242.985 105.466 2578.75
247.797 107.554 2629.81
241.864 101.523 2482.35
242.583 100.583 2459.36
255.6 108.63 2656.11
245.243 99.6606 2436.8
259.86 108.63 2656.11
261.99 108.63 2656.11
264.12 108.63 2656.11
266.25 108.63 2656.11
268.38 108.63 2656.11
270.51 108.63 2656.11
272.64 108.63 2656.11
274.77 108.63 2656.11
276.9 108.63 2656.11
279.03 108.63 2656.11
281.16 108.63 2656.11
283.29 108.63 2656.11
285.42 108.63 2656.11
291.245 110.847 2710.32
293.418 110.847 2710.32
295.592 110.847 2710.32
297.765 110.847 2710.32
299.939 110.847 2710.32
302.112 110.847 2710.32
304.286 110.847 2710.32
306.459 110.847 2710.32
308.633 110.847 2710.32
310.806 110.847 2710.32
312.98 110.847 2710.32
315.153 110.847 2710.32
317.327 110.847 2710.32
319.5 110.847 2710.32
319.5 109.727 2682.94
321.652 109.727 2682.94
323.803 109.727 2682.94
328.194 110.847 2710.32
330.367 110.847 2710.32
332.541 110.847 2710.32
334.714 110.847 2710.32
336.888 110.847 2710.32
339.061 110.847 2710.32
341.235 110.847 2710.32
343.408 110.847 2710.32
345.582 110.847 2710.32
347.755 110.847 2710.32
347.47 109.727 2682.94
349.621 109.727 2682.94
351.773 109.727 2682.94
353.924 109.727 2682.94
353.58 108.63 2656.11
358.227 109.727 2682.94
357.84 108.63 2656.11
357.46 107.554 2629.81
359.569 107.554 2629.81
364.23 108.63 2656.11
363.787 107.554 2629.81
376.593 111.99 2738.26
378.789 111.99 2738.26
380.985 111.99 2738.26
383.18 111.99 2738.26
385.376 111.99 2738.26
387.572 111.99 2738.26
389.768 111.99 2738.26
391.964 111.99 2738.26
394.16 111.99 2738.26
396.356 111.99 2738.26
398.552 111.99 2738.26
400.747 111.99 2738.26
402.943 111.99 2738.26
405.139 111.99 2738.26
407.335 111.99 2738.26
409.531 111.99 2738.26
414.906 113.156 2766.78
417.125 113.156 2766.78
416.119 111.99 2738.26
418.314 111.99 2738.26
420.51 111.99 2738.26
422.706 111.99 2738.26
424.902 111.99 2738.26
430.438 113.156 2766.78
432.656 113.156 2766.78
434.875 113.156 2766.78
437.094 113.156 2766.78
439.312 113.156 2766.78
441.531 113.156 2766.78
443.75 113.156 2766.78
445.969 113.156 2766.78
448.188 113.156 2766.78
450.406 113.156 2766.78
452.625 113.156 2766.78
454.844 113.156 2766.78
457.062 113.156 2766.78
459.281 113.156 2766.78
461.5 113.156 2766.78
463.719 113.156 2766.78
465.938 113.156 2766.78
468.156 113.156 2766.78
470.375 113.156 2766.78
472.594 113.156 2766.78
474.812 113.156 2766.78
477.031 113.156 2766.78
479.25 113.156 2766.78
481.469 113.156 2766.78
483.688 113.156 2766.78
485.906 113.156 2766.78
488.125 113.156 2766.78
490.344 113.156 2766.78
492.562 113.156 2766.78
494.781 113.156 2766.78
497 113.156 2766.78
499.219 113.156 2766.78
501.438 113.156 2766.78
503.656 113.156 2766.78
505.875 113.156 2766.78
508.094 113.156 2766.78
510.312 113.156 2766.78
512.531 113.156 2766.78
514.75 113.156 2766.78
516.969 113.156 2766.78
523.532 114.347 2795.91
525.774 114.347 2795.91
528.016 114.347 2795.91
530.258 114.347 2795.91
532.5 114.347 2795.91
534.742 114.347 2795.91
536.984 114.347 2795.91
539.226 114.347 2795.91
541.468 114.347 2795.91
539.156 113.156 2766.78
545.953 114.347 2795.91
548.195 114.347 2795.91
550.437 114.347 2795.91
552.679 114.347 2795.91
554.921 114.347 2795.91
557.163 114.347 2795.91
559.405 114.347 2795.91
561.647 114.347 2795.91
563.889 114.347 2795.91
566.132 114.347 2795.91
568.374 114.347 2795.91
383.802 68.3208 1670.51
469.648 89.041 2177.14
377.945 66.2378 1619.58
404.7 72.42 1770.74
291.451 44.7037 1093.05
301.138 46.8233 1144.88
307.248 48.0664 1175.27
571.622 110.847 2710.32
573.796 110.847 2710.32
575.969 110.847 2710.32
578.143 110.847 2710.32
580.316 110.847 2710.32
582.49 110.847 2710.32
-43.2656 33.2812 830.034
-132.06 53.25 1328.06
-132.188 53.5176 1334.73
-48.0294 34.8039 868.01
-47.8377 34.918 870.856
-48.1535 35.1485 876.604
-47.9603 35.2649 879.507
-47.255 35.2649 879.507
-47.57 35.5 885.37
-47.3729 35.6187 888.331
-46.6605 35.6187 888.331
-46.4597 35.7383 891.312
-46.7736 35.9797 897.334
-46.5712 36.1017 900.376
-45.3345 35.9797 897.334
-45.1271 36.1017 900.376
-44.9184 36.2245 903.439
-46.2724 36.7241 915.9
-45.5379 36.7241 915.9
-44.8034 36.7241 915.9
-44.069 36.7241 915.9
-127.113 57.2581 1428.02
-100.385 50.9569 1270.87
-99.366 50.9569 1270.87
-166.194 67.8344 1691.79
-254.517 90.2542 2250.94
-114.266 55.4688 1383.39
-427.348 134.81 3362.16
-418.012 133.125 3320.14
-357.367 118.333 2951.23
-355 118.333 2951.23
-347.588 117.033 2918.8
-340.337 115.761 2887.08
-302.46 106.5 2656.11
-296.302 105.446 2629.81
-294.193 105.446 2629.81
-292.084 105.446 2629.81
-289.975 105.446 2629.81
-287.866 105.446 2629.81
-285.757 105.446 2629.81
-283.649 105.446 2629.81
-281.54 105.446 2629.81
-279.431 105.446 2629.81
-277.322 105.446 2629.81
-275.213 105.446 2629.81
-273.104 105.446 2629.81
-270.995 105.446 2629.81
-268.886 105.446 2629.81
-266.777 105.446 2629.81
-264.668 105.446 2629.81
-262.559 105.446 2629.81
-260.45 105.446 2629.81
-258.342 105.446 2629.81
-256.233 105.446 2629.81
-254.124 105.446 2629.81
-252.015 105.446 2629.81
-249.906 105.446 2629.81
-251.34 106.5 2656.11
-249.21 106.5 2656.11
-247.08 106.5 2656.11
-244.95 106.5 2656.11
-242.82 106.5 2656.11
-240.69 106.5 2656.11
-238.56 106.5 2656.11
-236.43 106.5 2656.11
-234.3 106.5 2656.11
-278.352 121.023 3018.31
-275.932 121.023 3018.31
-273.511 121.023 3018.31
-271.091 121.023 3018.31
-268.67 121.023 3018.31
-266.25 121.023 3018.31
-263.83 121.023 3018.31
-261.409 121.023 3018.31
-258.989 121.023 3018.31
-256.568 121.023 3018.31
-254.148 121.023 3018.31
-268.786 126.786 3162.04
-266.25 126.786 3162.04
-259.359 125.294 3124.84
-248.5 122.414 3053
-246.052 122.414 3053
-243.603 122.414 3053
-241.155 122.414 3053
-238.707 122.414 3053
-236.259 122.414 3053
-233.81 122.414 3053
-231.362 122.414 3053
-228.914 122.414 3053
-226.466 122.414 3053
-224.017 122.414 3053
-221.569 122.414 3053
-219.121 122.414 3053
-216.672 122.414 3053
-214.224 122.414 3053
-211.776 122.414 3053
-209.328 122.414 3053
-206.879 122.414 3053
-204.431 122.414 3053
-201.983 122.414 3053
-199.534 122.414 3053
-197.086 122.414 3053
-194.638 122.414 3053
-192.19 122.414 3053
-189.741 122.414 3053
-187.293 122.414 3053
-184.845 122.414 3053
-182.397 122.414 3053
-179.948 122.414 3053
-177.5 122.414 3053
-175.052 122.414 3053
-172.603 122.414 3053
-170.155 122.414 3053
-170.895 123.837 3088.5
-165.259 122.414 3053
-162.81 122.414 3053
-163.465 123.837 3088.5
-160.988 123.837 3088.5
-158.512 123.837 3088.5
-156.035 123.837 3088.5
-153.558 123.837 3088.5
-151.081 123.837 3088.5
-148.605 123.837 3088.5
-146.128 123.837 3088.5
-143.651 123.837 3088.5
-141.174 123.837 3088.5
-138.698 123.837 3088.5
-136.221 123.837 3088.5
-133.744 123.837 3088.5
-131.267 123.837 3088.5
-128.791 123.837 3088.5
-126.314 123.837 3088.5
-123.837 123.837 3088.5
-121.36 123.837 3088.5
-118.884 123.837 3088.5
-116.407 123.837 3088.5
-113.93 123.837 3088.5
-111.453 123.837 3088.5
-108.977 123.837 3088.5
-106.5 123.837 3088.5
-104.023 123.837 3088.5
-101.547 123.837 3088.5
-99.0698 123.837 3088.5
-96.593 123.837 3088.5
-94.1163 123.837 3088.5
-91.6395 123.837 3088.5
-91.4647 125.294 3124.84
-88.9588 125.294 3124.84
-84.2093 123.837 3088.5
-81.7326 123.837 3088.5
-79.2558 123.837 3088.5
-78.9353 125.294 3124.84
-76.4294 125.294 3124.84
-73.9235 125.294 3124.84
-71.4176 125.294 3124.84
-68.9118 125.294 3124.84
-66.4059 125.294 3124.84
-63.9 125.294 3124.84
-61.3941 125.294 3124.84
-58.8882 125.294 3124.84
-56.3824 125.294 3124.84
-53.8765 125.294 3124.84
-51.3706 125.294 3124.84
-48.8647 125.294 3124.84
-46.3588 125.294 3124.84
-43.8529 125.294 3124.84
-44.9096 128.313 3200.13
-40.5714 126.786 3162.04
-36.3353 125.294 3124.84
-35.5 126.786 3162.04
-32.9643 126.786 3162.04
-30.4286 126.786 3162.04
-26.3118 125.294 3124.84
-23.8059 125.294 3124.84
-21.3 125.294 3124.84
-18.7941 125.294 3124.84
-17.75 126.786 3162.04
32.413 77.1739 1924.72
-11.2765 125.294 3124.84
-8.77059 125.294 3124.84
-6.26471 125.294 3124.84
-3.75882 125.294 3124.84
-1.25294 125.294 3124.84
1.25294 125.294 3124.84
3.75882 125.294 3124.84
6.26471 125.294 3124.84
7.60714 126.786 3162.04
10.1429 126.786 3162.04
54.3079 70.5298 1759.01
56.0526 70.0658 1747.44
18.7941 125.294 3124.84
21.3 125.294 3124.84
23.8059 125.294 3124.84
25.3571 126.786 3162.04
28.8176 125.294 3124.84
30.4286 126.786 3162.04
32.9643 126.786 3162.04
35.5 126.786 3162.04
38.0357 126.786 3162.04
40.5714 126.786 3162.04
43.1071 126.786 3162.04
45.6429 126.786 3162.04
48.1786 126.786 3162.04
50.7143 126.786 3162.04
53.25 126.786 3162.04
55.7857 126.786 3162.04
58.3214 126.786 3162.04
60.8571 126.786 3162.04
63.3929 126.786 3162.04
65.9286 126.786 3162.04
68.4643 126.786 3162.04
71 126.786 3162.04
81.9956 94.2478 2350.54
76.4294 125.294 3124.84
78.2711 128.313 3200.13
80.8373 128.313 3200.13
83.4036 128.313 3200.13
85.9699 128.313 3200.13
88.5361 128.313 3200.13
91.1024 128.313 3200.13
93.6687 128.313 3200.13
96.2349 128.313 3200.13
98.8012 128.313 3200.13
101.367 128.313 3200.13
103.934 128.313 3200.13
106.5 128.313 3200.13
109.066 128.313 3200.13
111.633 128.313 3200.13
114.199 128.313 3200.13
116.765 128.313 3200.13
119.331 128.313 3200.13
121.898 128.313 3200.13
124.464 128.313 3200.13
127.03 128.313 3200.13
129.596 128.313 3200.13
132.163 128.313 3200.13
134.729 128.313 3200.13
137.295 128.313 3200.13
139.861 128.313 3200.13
142.428 128.313 3200.13
140.489 113.298 2825.65
147.56 128.313 3200.13
150.127 128.313 3200.13
152.693 128.313 3200.13
155.259 128.313 3200.13
157.825 128.313 3200.13
160.392 128.313 3200.13
162.958 128.313 3200.13
165.524 128.313 3200.13
168.09 128.313 3200.13
170.657 128.313 3200.13
173.223 128.313 3200.13
162.882 104.412 2604.03
164.403 103.398 2578.75
166.471 103.398 2578.75
167.357 101.429 2529.63
168.792 100.472 2505.76
170.802 100.472 2505.76
180.489 112.105 2795.91
168.397 91.0256 2270.18
170.218 91.0256 2270.18
188.074 113.298 2825.65
173.859 91.0256 2270.18
182.858 100.472 2505.76
179.368 93.4211 2329.92
181.237 93.4211 2329.92
188.887 100.472 2505.76
182.962 91.0256 2270.18
184.119 90.2542 2250.94
200.22 106.5 2656.11
202.35 106.5 2656.11
204.48 106.5 2656.11
206.61 106.5 2656.11
210.827 108.673 2710.32
210.87 106.5 2656.11
211.946 105.446 2629.81
214.054 105.446 2629.81
216.163 105.446 2629.81
218.272 105.446 2629.81
220.381 105.446 2629.81
222.49 105.446 2629.81
224.599 105.446 2629.81
226.708 105.446 2629.81
228.817 105.446 2629.81
230.926 105.446 2629.81
233.035 105.446 2629.81
235.144 105.446 2629.81
237.252 105.446 2629.81
239.361 105.446 2629.81
241.47 105.446 2629.81
243.579 105.446 2629.81
242.985 103.398 2578.75
247.797 105.446 2629.81
240.611 98.6111 2459.36
242.583 98.6111 2459.36
255.6 106.5 2656.11
245.243 97.7064 2436.8
259.86 106.5 2656.11
261.99 106.5 2656.11
264.12 106.5 2656.11
266.25 106.5 2656.11
268.38 106.5 2656.11
270.51 106.5 2656.11
272.64 106.5 2656.11
274.77 106.5 2656.11
276.9 106.5 2656.11
279.03 106.5 2656.11
281.16 106.5 2656.11
283.29 106.5 2656.11
290.954 109.794 2738.26
291.245 108.673 2710.32
293.418 108.673 2710.32
295.592 108.673 2710.32
297.765 108.673 2710.32
299.939 108.673 2710.32
302.112 108.673 2710.32
304.286 108.673 2710.32
306.459 108.673 2710.32
308.633 108.673 2710.32
310.806 108.673 2710.32
312.98 108.673 2710.32
313.045 107.576 2682.94
315.197 107.576 2682.94
317.348 107.576 2682.94
319.5 107.576 2682.94
321.652 107.576 2682.94
323.803 107.576 2682.94
328.194 108.673 2710.32
330.367 108.673 2710.32
332.541 108.673 2710.32
334.714 108.673 2710.32
336.888 108.673 2710.32
339.061 108.673 2710.32
341.235 108.673 2710.32
343.408 108.673 2710.32
345.582 108.673 2710.32
347.755 108.673 2710.32
347.47 107.576 2682.94
349.621 107.576 2682.94
351.773 107.576 2682.94
353.924 107.576 2682.94
353.58 106.5 2656.11
355.71 106.5 2656.11
365.613 109.794 2738.26
367.809 109.794 2738.26
354.655 103.398 2578.75
354.317 102.404 2553.95
366.36 106.5 2656.11
376.593 109.794 2738.26
378.789 109.794 2738.26
380.985 109.794 2738.26
383.18 109.794 2738.26
385.376 109.794 2738.26
387.572 109.794 2738.26
389.768 109.794 2738.26
391.964 109.794 2738.26
394.16 109.794 2738.26
396.356 109.794 2738.26
398.552 109.794 2738.26
400.747 109.794 2738.26
402.943 109.794 2738.26
405.139 109.794 2738.26
407.335 109.794 2738.26
409.531 109.794 2738.26
411.727 109.794 2738.26
413.923 109.794 2738.26
416.119 109.794 2738.26
418.314 109.794 2738.26
420.51 109.794 2738.26
422.706 109.794 2738.26
424.902 109.794 2738.26
427.098 109.794 2738.26
432.656 110.938 2766.78
434.875 110.938 2766.78
437.094 110.938 2766.78
439.312 110.938 2766.78
441.531 110.938 2766.78
443.75 110.938 2766.78
445.969 110.938 2766.78
448.188 110.938 2766.78
450.406 110.938 2766.78
452.625 110.938 2766.78
454.844 110.938 2766.78
457.062 110.938 2766.78
459.281 110.938 2766.78
461.5 110.938 2766.78
463.719 110.938 2766.78
465.938 110.938 2766.78
468.156 110.938 2766.78
470.375 110.938 2766.78
472.594 110.938 2766.78
474.812 110.938 2766.78
477.031 110.938 2766.78
479.25 110.938 2766.78
481.469 110.938 2766.78
483.688 110.938 2766.78
485.906 110.938 2766.78
488.125 110.938 2766.78
490.344 110.938 2766.78
492.562 110.938 2766.78
494.781 110.938 2766.78
497 110.938 2766.78
499.219 110.938 2766.78
501.438 110.938 2766.78
503.656 110.938 2766.78
505.875 110.938 2766.78
508.094 110.938 2766.78
510.312 110.938 2766.78
512.531 110.938 2766.78
514.75 110.938 2766.78
516.969 110.938 2766.78
519.188 110.938 2766.78
521.406 110.938 2766.78
528.016 112.105 2795.91
530.258 112.105 2795.91
532.5 112.105 2795.91
534.742 112.105 2795.91
536.984 112.105 2795.91
283.694 45.9052 1144.88
536.938 110.938 2766.78
539.156 110.938 2766.78
541.375 110.938 2766.78
548.195 112.105 2795.91
550.437 112.105 2795.91
552.679 112.105 2795.91
554.921 112.105 2795.91
557.163 112.105 2795.91
559.405 112.105 2795.91
561.647 112.105 2795.91
563.889 112.105 2795.91
566.132 112.105 2795.91
568.374 112.105 2795.91
254.955 35.8586 894.313
469.648 87.2951 2177.14
471.393 87.2951 2177.14
614.795 121.023 3018.31
611.478 119.663 2984.39
567.276 108.673 2710.32
569.449 108.673 2710.32
571.622 108.673 2710.32
573.796 108.673 2710.32
575.969 108.673 2710.32
578.143 108.673 2710.32
580.316 108.673 2710.32
582.49 108.673 2710.32
-358.791 101.33 2578.75
-43.0674 32.7179 832.636
-42.8679 32.8208 835.255
-48.5361 34.2197 870.856
-48.3454 34.3322 873.72
-48.1535 34.4455 876.604
-47.9603 34.5596 879.507
-47.7658 34.6744 882.429
-47.57 34.79 885.37
-47.3729 34.9064 888.331
-47.1745 35.0235 891.312
-46.9747 35.1414 894.313
-46.7736 35.2601 897.334
-46.5712 35.3797 900.376
-46.3673 35.5 903.439
-46.1621 35.6212 906.522
-45.4352 35.6212 906.522
-45.7474 35.866 912.753
-45.5379 35.9897 915.9
-45.327 36.1142 919.069
-45.1146 36.2396 922.26
-206.104 75.0863 1910.87
