-95.4556 -123.067 1967.49
-93.8778 -123.067 1967.49
-124.862 -143.224 2289.75
-123.026 -143.224 2289.75
-121.19 -143.224 2289.75
-119.353 -143.224 2289.75
-117.517 -143.224 2289.75
-64.1821 -110.026 1759.01
-115.761 -144.47 2309.66
-113.909 -144.47 2309.66
-108.321 -142 2270.18
-106.5 -142 2270.18
-102.89 -140.797 2250.94
-102.859 -142 2270.18
-99.2797 -140.797 2250.94
-97.4746 -140.797 2250.94
-95.6695 -140.797 2250.94
-93.8644 -140.797 2250.94
-92.0593 -140.797 2250.94
-90.2542 -140.797 2250.94
-88.4492 -140.797 2250.94
-86.6441 -140.797 2250.94
-84.839 -140.797 2250.94
-83.0339 -140.797 2250.94
-81.2288 -140.797 2250.94
-79.4237 -140.797 2250.94
-77.6186 -140.797 2250.94
-75.8136 -140.797 2250.94
-74.0085 -140.797 2250.94
-72.2034 -140.797 2250.94
-70.3983 -140.797 2250.94
-68.5932 -140.797 2250.94
-66.7881 -140.797 2250.94
-64.9831 -140.797 2250.94
-63.178 -140.797 2250.94
-61.3729 -140.797 2250.94
-59.5678 -140.797 2250.94
-57.7627 -140.797 2250.94
-55.9576 -140.797 2250.94
-54.1525 -140.797 2250.94
-53.7051 -142 2270.18
-51.8846 -142 2270.18
-50.0641 -142 2270.18
-61.1389 -153.833 2459.36
-46.4231 -142 2270.18
-45.9052 -143.224 2289.75
-44.069 -143.224 2289.75
-42.2328 -143.224 2289.75
39.9375 -64.8984 1037.54
-47.8761 -152.422 2436.8
-134.691 -244.324 3906.04
-131.559 -244.324 3906.04
-36.1339 -148.339 2371.53
-34.2321 -148.339 2371.53
-32.3304 -148.339 2371.53
51.7286 -59.3357 948.611
57.873 -53.4212 854.055
-25.4469 -147.027 2350.54
-23.5619 -147.027 2350.54
-21.677 -147.027 2350.54
-19.792 -147.027 2350.54
-17.9071 -147.027 2350.54
-16.0221 -147.027 2350.54
-14.1372 -147.027 2350.54
-12.2522 -147.027 2350.54
-10.3673 -147.027 2350.54
-8.4823 -147.027 2350.54
-8.63514 -149.676 2392.89
-65.6507 -227.589 3638.51
-62.7329 -227.589 3638.51
54.8362 -70.6979 1130.26
55.9576 -70.3983 1125.47
-0 -151.036 2414.65
2.87838 -149.676 2392.89
5.70536 -148.339 2371.53
8.4823 -147.027 2350.54
59.2696 -72.2348 1154.83
60.3961 -71.9221 1149.83
61.5129 -71.6121 1144.88
62.6202 -71.3047 1139.96
63.7179 -71 1135.09
64.8064 -70.6979 1130.26
21.677 -147.027 2350.54
23.5619 -147.027 2350.54
25.4469 -147.027 2350.54
27.3319 -147.027 2350.54
29.2168 -147.027 2350.54
72.2831 -66.7229 1066.71
73.4044 -66.1912 1058.21
36.1174 -144.47 2309.66
38.5603 -143.224 2289.75
39.8217 -144.47 2309.66
41.6739 -144.47 2309.66
54.7714 -118.671 1897.22
56.6489 -117.83 1883.77
58.1596 -117.83 1883.77
60 -117 1870.5
61.5 -117 1870.5
63 -117 1870.5
64.5 -117 1870.5
66 -117 1870.5
55.2222 -153.833 2459.36
57.1944 -153.833 2459.36
71 -115.375 1844.52
61.1389 -153.833 2459.36
63.1111 -153.833 2459.36
65.0833 -153.833 2459.36
67.0556 -153.833 2459.36
68.6776 -155.271 2482.35
70.6682 -155.271 2482.35
72.6589 -155.271 2482.35
74.3491 -156.736 2505.76
76.3585 -156.736 2505.76
78.3679 -156.736 2505.76
80.3774 -156.736 2505.76
81.9231 -159.75 2553.95
83.9712 -159.75 2553.95
86.0192 -159.75 2553.95
88.2429 -158.229 2529.63
90.867 -152.422 2436.8
92.8211 -152.422 2436.8
94.7752 -152.422 2436.8
96.8182 -151.036 2414.65
98.8243 -149.676 2392.89
100.795 -148.339 2371.53
102.796 -144.47 2309.66
104.632 -145.737 2329.92
106.5 -144.47 2309.66
108.336 -143.224 2289.75
111.633 -200.169 3200.13
114.199 -200.169 3200.13
113.909 -144.47 2309.66
115.761 -144.47 2309.66
117.613 -144.47 2309.66
119.695 -147.027 2350.54
121.714 -148.339 2371.53
115.672 -79.4928 1270.87
115.23 -68.0902 1088.57
115.986 -67.2632 1075.35
116.848 -67.2632 1075.35
130.371 -143.224 2289.75
132.207 -143.224 2289.75
134.043 -143.224 2289.75
135.879 -143.224 2289.75
137.716 -143.224 2289.75
139.552 -143.224 2289.75
141.388 -143.224 2289.75
143.224 -143.224 2289.75
145.06 -143.224 2289.75
146.897 -143.224 2289.75
148.733 -143.224 2289.75
150.569 -143.224 2289.75
130.272 -74.1696 1185.76
129.575 -69.225 1106.71
133.002 -76.5622 1224.01
133.365 -74.8378 1196.45
134.45 -75.1765 1201.86
135.947 -76.5622 1224.01
161.525 -138.45 2213.43
163.777 -139.613 2232.03
165.567 -139.613 2232.03
168.931 -143.224 2289.75
170.767 -143.224 2289.75
172.603 -143.224 2289.75
158.01 -108.588 1736.02
175.679 -142 2270.18
177.5 -142 2270.18
178.703 -140.797 2250.94
182.439 -144.47 2309.66
184.291 -144.47 2309.66
148.322 -75.863 1212.84
157.995 -91.2857 1459.4
198.663 -159.75 2553.95
200.712 -159.75 2553.95
202.76 -159.75 2553.95
204.808 -159.75 2553.95
206.856 -159.75 2553.95
208.904 -159.75 2553.95
210.952 -159.75 2553.95
213 -159.75 2553.95
215.048 -159.75 2553.95
216.043 -158.229 2529.63
218.071 -158.229 2529.63
221.192 -159.75 2553.95
222.129 -158.229 2529.63
224.157 -158.229 2529.63
226.186 -158.229 2529.63
228.214 -158.229 2529.63
230.243 -158.229 2529.63
232.271 -158.229 2529.63
234.3 -158.229 2529.63
236.329 -158.229 2529.63
238.357 -158.229 2529.63
240.386 -158.229 2529.63
242.414 -158.229 2529.63
244.443 -158.229 2529.63
246.471 -158.229 2529.63
248.5 -158.229 2529.63
250.529 -158.229 2529.63
252.557 -158.229 2529.63
254.586 -158.229 2529.63
256.614 -158.229 2529.63
258.643 -158.229 2529.63
260.671 -158.229 2529.63
261.226 -156.736 2505.76
263.236 -156.736 2505.76
265.245 -156.736 2505.76
267.255 -156.736 2505.76
269.264 -156.736 2505.76
271.274 -156.736 2505.76
274.871 -158.229 2529.63
276.9 -158.229 2529.63
338.615 -213 3405.27
167.156 -55.0132 879.507
217.464 -99.485 1590.49
212.398 -93.8644 1500.63
287.043 -158.229 2529.63
289.071 -158.229 2529.63
175.973 -59.5484 952.011
176.486 -59.3357 948.611
295.157 -158.229 2529.63
190.981 -70.1013 1120.72
299.214 -158.229 2529.63
241.917 -110.026 1759.01
301.415 -156.736 2505.76
305.3 -158.229 2529.63
305.434 -156.736 2505.76
307.443 -156.736 2505.76
305.694 -153.833 2459.36
311.462 -156.736 2505.76
315.443 -158.229 2529.63
317.471 -158.229 2529.63
319.5 -158.229 2529.63
321.529 -158.229 2529.63
323.557 -158.229 2529.63
325.586 -158.229 2529.63
327.614 -158.229 2529.63
329.643 -158.229 2529.63
331.671 -158.229 2529.63
333.7 -158.229 2529.63
335.729 -158.229 2529.63
337.757 -158.229 2529.63
339.786 -158.229 2529.63
341.814 -158.229 2529.63
343.843 -158.229 2529.63
345.871 -158.229 2529.63
195.126 -58.0909 928.71
207.929 -65.9286 1054.01
351.957 -158.229 2529.63
353.986 -158.229 2529.63
356.014 -158.229 2529.63
358.043 -158.229 2529.63
360.071 -158.229 2529.63
362.1 -158.229 2529.63
364.129 -158.229 2529.63
366.157 -158.229 2529.63
368.186 -158.229 2529.63
370.214 -158.229 2529.63
372.243 -158.229 2529.63
374.271 -158.229 2529.63
376.3 -158.229 2529.63
378.329 -158.229 2529.63
380.357 -158.229 2529.63
382.386 -158.229 2529.63
384.414 -158.229 2529.63
386.443 -158.229 2529.63
388.471 -158.229 2529.63
390.5 -158.229 2529.63
392.529 -158.229 2529.63
394.557 -158.229 2529.63
396.586 -158.229 2529.63
404.286 -161.301 2578.75
280.011 -93.3371 1492.2
405.519 -159.75 2553.95
407.567 -159.75 2553.95
409.615 -159.75 2553.95
411.663 -159.75 2553.95
413.712 -159.75 2553.95
415.76 -159.75 2553.95
417.808 -159.75 2553.95
308.916 -103.193 1649.76
310.239 -103.193 1649.76
423.952 -159.75 2553.95
426 -159.75 2553.95
428.048 -159.75 2553.95
430.096 -159.75 2553.95
432.144 -159.75 2553.95
434.192 -159.75 2553.95
436.24 -159.75 2553.95
438.288 -159.75 2553.95
440.337 -159.75 2553.95
292.309 -88.3723 1412.82
447.714 -161.301 2578.75
449.782 -161.301 2578.75
451.85 -161.301 2578.75
453.917 -161.301 2578.75
408.996 -139.613 2232.03
504.412 -182.571 2918.8
309.98 -92.8156 1483.86
310.033 -92.3 1475.62
310.086 -91.7901 1467.46
310.137 -91.2857 1459.4
309.082 -90.2935 1443.54
310.239 -90.2935 1443.54
499.219 -173.062 2766.78
497.366 -171.278 2738.26
499.562 -171.278 2738.26
337.464 -100.084 1600.07
627.486 -224.514 3589.34
630.365 -224.514 3589.34
679.721 -244.324 3906.04
378.667 -115.375 1844.52
677.587 -240.783 3849.43
379.728 -114.579 1831.8
381.197 -114.579 1831.8
382.666 -114.579 1831.8
386.062 -115.375 1844.52
343.167 -97.1579 1553.28
501.481 -161.301 2578.75
555.907 -182.571 2918.8
271.596 -66.7229 1066.71
610.427 -202.61 3239.16
385.258 -111.503 1782.62
386.688 -111.503 1782.62
271.701 -65.4094 1045.71
497 -153.833 2459.36
498.972 -153.833 2459.36
426.801 -124.917 1997.08
318.446 -82.2475 1314.91
595.432 -188.795 3018.31
344.077 -91.2857 1459.4
559.125 -173.062 2766.78
363.353 -97.7294 1562.42
563.562 -173.062 2766.78
570.616 -174.884 2795.91
572.858 -174.884 2795.91
580.085 -176.745 2825.65
369.618 -97.7294 1562.42
377.241 -100.084 1600.07
353.254 -90.7869 1451.43
354.418 -90.7869 1451.43
355.582 -90.7869 1451.43
639 -193.186 3088.5
641.477 -193.186 3088.5
643.953 -193.186 3088.5
646.43 -193.186 3088.5
630.624 -186.674 2984.39
-96.572 -71.3008 1125.47
-100.943 -73.1609 1154.83
-100.017 -73.1609 1154.83
-117.604 -79.7488 1258.82
-116.595 -79.7488 1258.82
-69.0056 -63.0225 994.798
-68.2079 -63.0225 994.798
-90.2542 -71.3008 1125.47
-89.3517 -71.3008 1125.47
-267.549 -136.805 2159.44
-73.7953 -66.248 1045.71
-72.9567 -66.248 1045.71
-72.1181 -66.248 1045.71
-63.9 -63.4981 1002.31
-61.8258 -63.0225 994.798
-61.6579 -63.2594 998.538
-301.913 -154.376 2436.8
-201.167 -116.854 1844.52
-58.0187 -62.7873 991.086
-265.347 -142.602 2250.94
-263.542 -142.602 2250.94
-168.513 -106.5 1681.08
-263.064 -143.821 2270.18
-261.244 -143.821 2270.18
-259.423 -143.821 2270.18
-257.603 -143.821 2270.18
-65.8049 -68.4024 1079.72
-64.939 -68.4024 1079.72
-296.971 -161.798 2553.95
-70.3983 -71.3008 1125.47
-69.4958 -71.3008 1125.47
-180.458 -116.854 1844.52
-312.98 -171.704 2710.32
-258.643 -150.241 2371.53
-37.766 -59.6702 941.883
-118.333 -93.4833 1475.62
-118.399 -94.0056 1483.86
-118.466 -94.5337 1492.2
-162.628 -113.696 1794.67
-161.189 -113.696 1794.67
-161.561 -114.469 1806.88
-160.112 -114.469 1806.88
-160.479 -115.253 1819.25
-245.918 -152.973 2414.65
-240.824 -151.595 2392.89
-238.905 -151.595 2392.89
-236.986 -151.595 2392.89
-235.068 -151.595 2392.89
-233.149 -151.595 2392.89
-231.23 -151.595 2392.89
-229.311 -151.595 2392.89
-227.392 -151.595 2392.89
-225.473 -151.595 2392.89
-223.554 -151.595 2392.89
-221.635 -151.595 2392.89
-219.716 -151.595 2392.89
-217.797 -151.595 2392.89
-215.878 -151.595 2392.89
-213.959 -151.595 2392.89
-212.041 -151.595 2392.89
-210.122 -151.595 2392.89
-208.203 -151.595 2392.89
-206.284 -151.595 2392.89
-204.365 -151.595 2392.89
-202.446 -151.595 2392.89
-200.527 -151.595 2392.89
-198.608 -151.595 2392.89
-196.689 -151.595 2392.89
-194.77 -151.595 2392.89
-192.851 -151.595 2392.89
-190.932 -151.595 2392.89
-189.014 -151.595 2392.89
-187.095 -151.595 2392.89
-185.176 -151.595 2392.89
-183.257 -151.595 2392.89
-181.338 -151.595 2392.89
-179.419 -151.595 2392.89
-177.5 -151.595 2392.89
-173.062 -150.241 2371.53
-171.161 -150.241 2371.53
-166.819 -148.912 2350.54
-160.213 -146.322 2309.66
-167.905 -151.595 2392.89
-165.986 -151.595 2392.89
-164.068 -151.595 2392.89
-162.149 -151.595 2392.89
-160.23 -151.595 2392.89
-158.311 -151.595 2392.89
-156.392 -151.595 2392.89
-152.143 -150.241 2371.53
-150.241 -150.241 2371.53
-148.339 -150.241 2371.53
-146.438 -150.241 2371.53
-142.314 -148.912 2350.54
-114.952 -133.548 2108.02
18.8734 -53.25 840.541
-98.5522 -125.575 1982.17
-95.4556 -124.644 1967.49
-75.0503 -112.933 1782.62
-124.862 -145.06 2289.75
-123.026 -145.06 2289.75
-121.19 -145.06 2289.75
-119.353 -145.06 2289.75
-65.5927 -111.437 1759.01
-113.782 -143.821 2270.18
-111.962 -143.821 2270.18
-110.141 -143.821 2270.18
-108.321 -143.821 2270.18
-106.5 -143.821 2270.18
-102.89 -142.602 2250.94
-102.859 -143.821 2270.18
-99.2797 -142.602 2250.94
-97.4746 -142.602 2250.94
-95.6695 -142.602 2250.94
-93.8644 -142.602 2250.94
-92.0593 -142.602 2250.94
-90.2542 -142.602 2250.94
-88.4492 -142.602 2250.94
-86.6441 -142.602 2250.94
-84.839 -142.602 2250.94
-83.0339 -142.602 2250.94
-81.2288 -142.602 2250.94
-79.4237 -142.602 2250.94
-77.6186 -142.602 2250.94
-75.8136 -142.602 2250.94
-74.0085 -142.602 2250.94
-72.2034 -142.602 2250.94
-70.3983 -142.602 2250.94
-68.5932 -142.602 2250.94
-66.7881 -142.602 2250.94
-64.9831 -142.602 2250.94
-63.178 -142.602 2250.94
-61.3729 -142.602 2250.94
-59.5678 -142.602 2250.94
-57.7627 -142.602 2250.94
-55.9576 -142.602 2250.94
-54.1525 -142.602 2250.94
-53.7051 -143.821 2270.18
-51.8846 -143.821 2270.18
-50.0641 -143.821 2270.18
-46.9322 -142.602 2250.94
-46.4231 -143.821 2270.18
-10.5795 -111.437 1759.01
-44.069 -145.06 2289.75
-42.2328 -145.06 2289.75
-40.3966 -145.06 2289.75
-12 -118.5 1870.5
-134.691 -247.456 3906.04
-38.0357 -150.241 2371.53
-36.1339 -150.241 2371.53
-34.2321 -150.241 2371.53
-32.3304 -150.241 2371.53
-30.4286 -150.241 2371.53
-37.5286 -160.257 2529.63
53.8145 -59.4594 938.555
-23.5619 -148.912 2350.54
-21.677 -148.912 2350.54
-19.792 -148.912 2350.54
-17.9071 -148.912 2350.54
-16.0221 -148.912 2350.54
-14.1372 -148.912 2350.54
-12.2522 -148.912 2350.54
-10.3673 -148.912 2350.54
-9.50893 -150.241 2371.53
-8.63514 -151.595 2392.89
-5.70536 -150.241 2371.53
-3.80357 -150.241 2371.53
-1.90179 -150.241 2371.53
-0 -150.241 2371.53
0.959459 -151.595 2392.89
2.87838 -151.595 2392.89
1.97222 -155.806 2459.36
58.1332 -73.4803 1159.87
59.2696 -73.1609 1154.83
60.3961 -72.8442 1149.83
61.5129 -72.5302 1144.88
62.8077 -71.9103 1135.09
63.7179 -71.9103 1135.09
64.8064 -71.6043 1130.26
21.677 -148.912 2350.54
23.5619 -148.912 2350.54
25.4469 -148.912 2350.54
27.3319 -148.912 2350.54
29.2168 -148.912 2350.54
37.2317 -136.805 2159.44
39.5081 -135.702 2142.02
36.1174 -146.322 2309.66
25.2526 -173.474 2738.26
24.0484 -180.935 2856.03
26.3387 -180.935 2856.03
54.7714 -120.193 1897.22
56.6489 -119.34 1883.77
58.1596 -119.34 1883.77
60 -118.5 1870.5
61.8147 -117.671 1857.42
62.6915 -119.34 1883.77
64.2021 -119.34 1883.77
65.7128 -119.34 1883.77
55.2222 -155.806 2459.36
57.1944 -155.806 2459.36
59.1667 -155.806 2459.36
61.1389 -155.806 2459.36
63.1111 -155.806 2459.36
65.0833 -155.806 2459.36
73.9809 -128.45 2027.56
69.0278 -155.806 2459.36
70.6682 -157.262 2482.35
72.6589 -157.262 2482.35
74.3491 -158.745 2505.76
90.8382 -82.4853 1302.01
78.3679 -158.745 2505.76
80.3774 -158.745 2505.76
81.9231 -161.798 2553.95
83.9712 -161.798 2553.95
86.0192 -161.798 2553.95
98.5125 -70.1125 1106.71
90.867 -154.376 2436.8
92.6944 -155.806 2459.36
94.7752 -154.376 2436.8
96.8182 -152.973 2414.65
98.8243 -151.595 2392.89
100.795 -150.241 2371.53
102.796 -146.322 2309.66
104.632 -147.605 2329.92
106.5 -146.322 2309.66
108.336 -145.06 2289.75
111.633 -202.735 3200.13
112.057 -146.322 2309.66
113.909 -146.322 2309.66
115.761 -146.322 2309.66
117.911 -150.241 2371.53
119.695 -148.912 2350.54
121.58 -148.912 2350.54
123.465 -148.912 2350.54
125.35 -148.912 2350.54
115.986 -68.1255 1075.35
116.848 -68.1255 1075.35
117.711 -68.1255 1075.35
132.207 -145.06 2289.75
134.043 -145.06 2289.75
135.879 -145.06 2289.75
137.716 -145.06 2289.75
139.552 -145.06 2289.75
141.388 -145.06 2289.75
143.224 -145.06 2289.75
145.06 -145.06 2289.75
146.897 -145.06 2289.75
148.733 -145.06 2289.75
127.979 -70.7017 1116.01
128.595 -69.8216 1102.12
130.789 -73.8026 1164.96
131.724 -73.8026 1164.96
132.658 -73.8026 1164.96
131.816 -68.9631 1088.57
132.582 -68.6816 1084.13
133.341 -68.4024 1079.72
163.777 -141.403 2232.03
165.567 -141.403 2232.03
168.931 -145.06 2289.75
169.147 -141.403 2232.03
172.038 -143.821 2270.18
158.01 -109.98 1736.02
175.679 -143.821 2270.18
177.5 -143.821 2270.18
178.703 -142.602 2250.94
143.04 -70.4059 1111.34
184.291 -146.322 2309.66
141.062 -63.4981 1002.31
141.866 -63.4981 1002.31
198.663 -161.798 2553.95
200.712 -161.798 2553.95
202.76 -161.798 2553.95
204.808 -161.798 2553.95
206.856 -161.798 2553.95
208.904 -161.798 2553.95
210.952 -161.798 2553.95
211.986 -160.257 2529.63
214.014 -160.257 2529.63
216.043 -160.257 2529.63
218.071 -160.257 2529.63
221.192 -161.798 2553.95
222.129 -160.257 2529.63
224.157 -160.257 2529.63
226.186 -160.257 2529.63
228.214 -160.257 2529.63
230.243 -160.257 2529.63
232.271 -160.257 2529.63
234.3 -160.257 2529.63
236.329 -160.257 2529.63
238.357 -160.257 2529.63
240.386 -160.257 2529.63
242.414 -160.257 2529.63
244.443 -160.257 2529.63
246.471 -160.257 2529.63
248.5 -160.257 2529.63
250.529 -160.257 2529.63
252.557 -160.257 2529.63
254.586 -160.257 2529.63
256.614 -160.257 2529.63
258.643 -160.257 2529.63
259.217 -158.745 2505.76
261.226 -158.745 2505.76
263.236 -158.745 2505.76
265.245 -158.745 2505.76
267.255 -158.745 2505.76
269.264 -158.745 2505.76
271.274 -158.745 2505.76
274.871 -160.257 2529.63
276.9 -160.257 2529.63
278.929 -160.257 2529.63
280.957 -160.257 2529.63
282.986 -160.257 2529.63
285.014 -160.257 2529.63
287.043 -160.257 2529.63
289.071 -160.257 2529.63
291.1 -160.257 2529.63
291.368 -158.745 2505.76
190.082 -71 1120.72
189.925 -70.1125 1106.71
190.463 -69.8216 1102.12
344.267 -195.663 3088.5
341.284 -191.216 3018.31
343.705 -191.216 3018.31
343.433 -189.067 2984.39
307.443 -158.745 2505.76
309.453 -158.745 2505.76
311.462 -158.745 2505.76
313.472 -158.745 2505.76
317.471 -160.257 2529.63
319.5 -160.257 2529.63
321.529 -160.257 2529.63
321.509 -158.745 2505.76
325.586 -160.257 2529.63
327.614 -160.257 2529.63
329.643 -160.257 2529.63
279.077 -122.825 1938.77
202.307 -67.5783 1066.71
333.566 -158.745 2505.76
335.575 -158.745 2505.76
337.585 -158.745 2505.76
341.814 -160.257 2529.63
343.843 -160.257 2529.63
345.871 -160.257 2529.63
195.126 -58.8357 928.71
250.096 -94.5337 1492.2
255.477 -97.2659 1535.32
351.651 -158.745 2505.76
356.014 -160.257 2529.63
358.043 -160.257 2529.63
360.071 -160.257 2529.63
362.1 -160.257 2529.63
364.129 -160.257 2529.63
366.157 -160.257 2529.63
368.186 -160.257 2529.63
370.214 -160.257 2529.63
372.243 -160.257 2529.63
374.271 -160.257 2529.63
376.3 -160.257 2529.63
378.329 -160.257 2529.63
380.357 -160.257 2529.63
382.386 -160.257 2529.63
384.414 -160.257 2529.63
386.443 -160.257 2529.63
388.471 -160.257 2529.63
390.5 -160.257 2529.63
392.529 -160.257 2529.63
394.557 -160.257 2529.63
396.586 -160.257 2529.63
398.614 -160.257 2529.63
403.471 -161.798 2553.95
405.519 -161.798 2553.95
407.567 -161.798 2553.95
262.559 -83.302 1314.91
411.663 -161.798 2553.95
413.712 -161.798 2553.95
415.76 -161.798 2553.95
443.75 -175.281 2766.78
305.213 -102.604 1619.58
421.904 -161.798 2553.95
423.952 -161.798 2553.95
426 -161.798 2553.95
428.048 -161.798 2553.95
430.096 -161.798 2553.95
432.144 -161.798 2553.95
434.192 -161.798 2553.95
436.24 -161.798 2553.95
438.288 -161.798 2553.95
289.232 -88.5632 1397.95
292.309 -89.5053 1412.82
293.441 -89.5053 1412.82
449.782 -163.369 2578.75
451.85 -163.369 2578.75
453.917 -163.369 2578.75
620.743 -240.386 3794.44
307.667 -93.4833 1475.62
309.98 -94.0056 1483.86
308.909 -92.9669 1467.46
310.086 -92.9669 1467.46
306.835 -90.9568 1435.74
307.986 -90.9568 1435.74
310.239 -91.4511 1443.54
495.17 -173.474 2738.26
497.366 -173.474 2738.26
499.562 -173.474 2738.26
337.464 -101.367 1600.07
627.486 -227.392 3589.34
630.365 -227.392 3589.34
379.08 -117.671 1857.42
380.57 -117.671 1857.42
384 -118.5 1870.5
379.728 -116.048 1831.8
381.197 -116.048 1831.8
382.666 -116.048 1831.8
657.966 -230.507 3638.51
660.884 -230.507 3638.51
501.481 -163.369 2578.75
555.907 -184.912 2918.8
473.545 -150.241 2371.53
478.77 -151.595 2392.89
385.258 -112.933 1782.62
268.944 -65.4747 1033.51
271.701 -66.248 1045.71
497 -155.806 2459.36
339.396 -92.456 1459.4
426.801 -126.519 1997.08
341.736 -92.456 1459.4
342.907 -92.456 1459.4
424.434 -123.728 1953.02
559.125 -175.281 2766.78
730.286 -240.386 3794.44
563.562 -175.281 2766.78
570.616 -177.126 2795.91
572.858 -177.126 2795.91
373.069 -100.76 1590.49
369.618 -98.9824 1562.42
377.241 -101.367 1600.07
351.913 -91.4511 1443.54
353.071 -91.4511 1443.54
354.228 -91.4511 1443.54
645.265 -197.965 3124.84
629.318 -191.216 3018.31
631.739 -191.216 3018.31
646.43 -195.663 3088.5
636.58 -191.216 3018.31
-88.3171 -69.2683 1079.72
-100.943 -74.087 1154.83
-100.017 -74.087 1154.83
-116.547 -80.3774 1252.88
-229.736 -121.714 1897.22
-69.0056 -63.8202 994.798
-68.2079 -63.8202 994.798
-67.4101 -63.8202 994.798
-272.361 -139.672 2177.14
-267.549 -138.537 2159.44
-265.817 -138.537 2159.44
-173.144 -104.54 1629.52
-281.269 -145.641 2270.18
-65.8511 -65.0382 1013.78
-62.4586 -64.0602 998.538
-62.2925 -64.3019 1002.31
-62.125 -64.5455 1006.1
-201.167 -118.333 1844.52
-58.0187 -63.5821 991.086
-265.347 -144.407 2250.94
-263.542 -144.407 2250.94
-523.239 -246.957 3849.43
-108.619 -84.7761 1321.45
-319.5 -168.713 2629.81
-317.391 -168.713 2629.81
-122.532 -91.6129 1428.02
-116.589 -89.6842 1397.95
-115.468 -89.6842 1397.95
-296.971 -163.846 2553.95
-259.711 -149.474 2329.92
-261.066 -150.796 2350.54
-262.446 -152.143 2371.53
-260.545 -152.143 2371.53
-255.412 -150.796 2350.54
-192.64 -125.294 1953.02
-118.333 -94.6667 1475.62
-118.399 -95.1955 1483.86
-97.8061 -86.9388 1355.16
-162.628 -115.135 1794.67
-161.189 -115.135 1794.67
-161.561 -115.918 1806.88
-160.112 -115.918 1806.88
-160.479 -116.712 1819.25
-245.918 -154.909 2414.65
-240.824 -153.514 2392.89
-238.905 -153.514 2392.89
-236.986 -153.514 2392.89
-235.068 -153.514 2392.89
-233.149 -153.514 2392.89
-231.23 -153.514 2392.89
-229.311 -153.514 2392.89
-227.392 -153.514 2392.89
-225.473 -153.514 2392.89
-220.607 -152.143 2371.53
-218.705 -152.143 2371.53
-216.804 -152.143 2371.53
-217.797 -153.514 2392.89
-215.878 -153.514 2392.89
-213.959 -153.514 2392.89
-212.041 -153.514 2392.89
-210.122 -153.514 2392.89
-208.203 -153.514 2392.89
-206.284 -153.514 2392.89
-204.365 -153.514 2392.89
-202.446 -153.514 2392.89
-200.527 -153.514 2392.89
-198.608 -153.514 2392.89
-196.689 -153.514 2392.89
-194.77 -153.514 2392.89
-192.851 -153.514 2392.89
-190.932 -153.514 2392.89
-189.014 -153.514 2392.89
-187.095 -153.514 2392.89
-185.176 -153.514 2392.89
-183.257 -153.514 2392.89
-181.338 -153.514 2392.89
-179.419 -153.514 2392.89
-177.5 -153.514 2392.89
-173.062 -152.143 2371.53
-171.161 -152.143 2371.53
-166.819 -150.796 2350.54
-162.553 -149.474 2329.92
-158.361 -148.174 2309.66
-165.986 -153.514 2392.89
-164.068 -153.514 2392.89
-162.149 -153.514 2392.89
-160.23 -153.514 2392.89
-158.311 -153.514 2392.89
-156.392 -153.514 2392.89
-152.143 -152.143 2371.53
-150.241 -152.143 2371.53
-146.084 -150.796 2350.54
-144.199 -150.796 2350.54
-118.428 -136.32 2124.89
-118.524 -137.419 2142.02
-115.02 -136.32 2124.89
-98.5522 -127.164 1982.17
-111.612 -136.32 2124.89
-126.698 -146.897 2289.75
-124.862 -146.897 2289.75
-123.026 -146.897 2289.75
-121.19 -146.897 2289.75
-119.353 -146.897 2289.75
-63.3431 -111.373 1736.02
-113.782 -145.641 2270.18
-111.962 -145.641 2270.18
-110.141 -145.641 2270.18
-106.5 -144.407 2250.94
-104.695 -144.407 2250.94
-102.89 -144.407 2250.94
-101.085 -144.407 2250.94
-99.2797 -144.407 2250.94
-97.4746 -144.407 2250.94
-95.6695 -144.407 2250.94
-93.8644 -144.407 2250.94
-92.0593 -144.407 2250.94
-90.2542 -144.407 2250.94
-88.4492 -144.407 2250.94
-86.6441 -144.407 2250.94
-84.839 -144.407 2250.94
-83.0339 -144.407 2250.94
-81.2288 -144.407 2250.94
-79.4237 -144.407 2250.94
-77.6186 -144.407 2250.94
-75.8136 -144.407 2250.94
-74.0085 -144.407 2250.94
-72.2034 -144.407 2250.94
-70.3983 -144.407 2250.94
-68.5932 -144.407 2250.94
-66.7881 -144.407 2250.94
-64.9831 -144.407 2250.94
-63.178 -144.407 2250.94
-61.3729 -144.407 2250.94
-59.5678 -144.407 2250.94
-57.7627 -144.407 2250.94
-55.9576 -144.407 2250.94
-55.5256 -145.641 2270.18
-53.7051 -145.641 2270.18
-51.8846 -145.641 2270.18
-50.0641 -145.641 2270.18
-46.9322 -144.407 2250.94
-46.4231 -145.641 2270.18
-44.6026 -145.641 2270.18
-44.069 -146.897 2289.75
-42.2328 -146.897 2289.75
-40.3966 -146.897 2289.75
-38.5603 -146.897 2289.75
-134.691 -250.588 3906.04
-38.0357 -152.143 2371.53
-36.1339 -152.143 2371.53
-34.2321 -152.143 2371.53
-32.3304 -152.143 2371.53
-30.4286 -152.143 2371.53
-28.5268 -152.143 2371.53
55.2629 -58.5567 912.753
-23.5619 -150.796 2350.54
-21.677 -150.796 2350.54
-19.792 -150.796 2350.54
-17.9071 -150.796 2350.54
-16.0221 -150.796 2350.54
-14.1372 -150.796 2350.54
-12.2522 -150.796 2350.54
-10.3673 -150.796 2350.54
-10.5541 -153.514 2392.89
-8.63514 -153.514 2392.89
-5.70536 -152.143 2371.53
-5.80909 -154.909 2414.65
-2.87838 -153.514 2392.89
55.0862 -73.4483 1144.88
56.221 -73.133 1139.96
-0.995327 -159.252 2482.35
1.97222 -157.778 2459.36
3.94444 -157.778 2459.36
6.83945 -156.33 2436.8
13.0789 -149.474 2329.92
14.1372 -150.796 2350.54
63.542 -71.5966 1116.01
64.437 -71.5966 1116.01
19.792 -150.796 2350.54
21.677 -150.796 2350.54
23.5619 -150.796 2350.54
25.4469 -150.796 2350.54
27.3319 -150.796 2350.54
29.2168 -150.796 2350.54
72.2831 -68.4337 1066.71
40.044 -136.32 2124.89
22.1875 -177.5 2766.78
25.2526 -175.67 2738.26
24.0484 -183.226 2856.03
26.3387 -183.226 2856.03
54.7714 -121.714 1897.22
31.7234 -181.277 2825.65
33.9894 -181.277 2825.65
60 -120 1870.5
61.8147 -119.161 1857.42
63.3042 -119.161 1857.42
64.7937 -119.161 1857.42
65.7128 -120.851 1883.77
55.2222 -157.778 2459.36
57.6468 -156.33 2436.8
59.1667 -157.778 2459.36
61.1389 -157.778 2459.36
63.1111 -157.778 2459.36
65.0833 -157.778 2459.36
67.0556 -157.778 2459.36
69.0278 -157.778 2459.36
70.6682 -159.252 2482.35
73.5818 -154.909 2414.65
74.3491 -160.755 2505.76
76.3585 -160.755 2505.76
78.3679 -160.755 2505.76
80.3774 -160.755 2505.76
82.3868 -160.755 2505.76
84.3962 -160.755 2505.76
94.1163 -99.0698 1544.25
95.2895 -99.6491 1553.28
90.867 -156.33 2436.8
87.3846 -218.462 3405.27
89.9026 -221.299 3449.49
96.8182 -154.909 2414.65
98.8243 -153.514 2392.89
100.795 -152.143 2371.53
102.796 -148.174 2309.66
104.664 -146.897 2289.75
106.5 -145.641 2270.18
108.321 -145.641 2270.18
110.237 -149.474 2329.92
112.105 -149.474 2329.92
113.974 -149.474 2329.92
115.761 -148.174 2309.66
117.711 -149.474 2329.92
119.465 -148.174 2309.66
114.653 -81.5311 1270.87
123.616 -152.143 2371.53
125.35 -150.796 2350.54
115.986 -68.9879 1075.35
116.848 -68.9879 1075.35
117.665 -68.7097 1071.01
132.207 -146.897 2289.75
134.043 -146.897 2289.75
135.879 -146.897 2289.75
137.716 -146.897 2289.75
139.552 -146.897 2289.75
141.388 -146.897 2289.75
143.224 -146.897 2289.75
145.06 -146.897 2289.75
146.897 -146.897 2289.75
148.733 -146.897 2289.75
127.979 -71.5966 1116.01
128.595 -70.7054 1102.12
129.479 -70.7054 1102.12
132.523 -77.1041 1201.86
131.043 -70.1235 1093.05
131.816 -69.8361 1088.57
132.582 -69.551 1084.13
162.458 -144.407 2250.94
164.263 -144.407 2250.94
165.567 -143.193 2232.03
167.873 -144.407 2250.94
169.678 -144.407 2250.94
171.483 -144.407 2250.94
158.349 -112.105 1747.44
159.402 -111.373 1736.02
176.307 -143.193 2232.03
178.703 -144.407 2250.94
143.04 -71.2971 1111.34
184.291 -148.174 2309.66
141.062 -64.3019 1002.31
141.866 -64.3019 1002.31
198.663 -163.846 2553.95
238.905 -230.27 3589.34
202.76 -163.846 2553.95
204.808 -163.846 2553.95
206.856 -163.846 2553.95
208.904 -163.846 2553.95
210.952 -163.846 2553.95
211.986 -162.286 2529.63
214.014 -162.286 2529.63
216.043 -162.286 2529.63
218.071 -162.286 2529.63
220.1 -162.286 2529.63
222.129 -162.286 2529.63
224.157 -162.286 2529.63
226.186 -162.286 2529.63
228.214 -162.286 2529.63
230.243 -162.286 2529.63
232.271 -162.286 2529.63
234.3 -162.286 2529.63
236.329 -162.286 2529.63
238.357 -162.286 2529.63
240.386 -162.286 2529.63
242.414 -162.286 2529.63
244.443 -162.286 2529.63
246.471 -162.286 2529.63
248.5 -162.286 2529.63
249.17 -160.755 2505.76
252.557 -162.286 2529.63
254.586 -162.286 2529.63
256.614 -162.286 2529.63
258.643 -162.286 2529.63
259.217 -160.755 2505.76
261.226 -160.755 2505.76
263.236 -160.755 2505.76
265.245 -160.755 2505.76
267.255 -160.755 2505.76
269.264 -160.755 2505.76
271.274 -160.755 2505.76
274.871 -162.286 2529.63
276.9 -162.286 2529.63
278.929 -162.286 2529.63
280.957 -162.286 2529.63
282.986 -162.286 2529.63
283.33 -160.755 2505.76
287.043 -162.286 2529.63
289.071 -162.286 2529.63
289.358 -160.755 2505.76
291.368 -160.755 2505.76
295.157 -162.286 2529.63
297.186 -162.286 2529.63
299.214 -162.286 2529.63
301.243 -162.286 2529.63
301.415 -160.755 2505.76
343.705 -193.636 3018.31
343.433 -191.461 2984.39
338.022 -185.217 2887.08
309.453 -160.755 2505.76
311.462 -160.755 2505.76
313.472 -160.755 2505.76
317.471 -162.286 2529.63
319.5 -162.286 2529.63
199.033 -69.8361 1088.57
323.557 -162.286 2529.63
323.519 -160.755 2505.76
325.528 -160.755 2505.76
327.538 -160.755 2505.76
329.547 -160.755 2505.76
331.557 -160.755 2505.76
333.566 -160.755 2505.76
335.575 -160.755 2505.76
337.585 -160.755 2505.76
339.594 -160.755 2505.76
341.604 -160.755 2505.76
345.871 -162.286 2529.63
345.623 -160.755 2505.76
250.096 -95.7303 1492.2
349.642 -160.755 2505.76
351.651 -160.755 2505.76
204.257 -63.5821 991.086
358.043 -162.286 2529.63
360.071 -162.286 2529.63
348.284 -153.514 2392.89
361.698 -160.755 2505.76
363.708 -160.755 2505.76
365.717 -160.755 2505.76
367.726 -160.755 2505.76
372.243 -162.286 2529.63
374.271 -162.286 2529.63
376.3 -162.286 2529.63
378.329 -162.286 2529.63
380.357 -162.286 2529.63
382.386 -162.286 2529.63
384.414 -162.286 2529.63
386.443 -162.286 2529.63
388.471 -162.286 2529.63
390.5 -162.286 2529.63
392.529 -162.286 2529.63
394.557 -162.286 2529.63
396.586 -162.286 2529.63
398.614 -162.286 2529.63
403.471 -163.846 2553.95
405.519 -163.846 2553.95
407.567 -163.846 2553.95
262.559 -84.3564 1314.91
411.663 -163.846 2553.95
413.712 -163.846 2553.95
302.616 -103.902 1619.58
303.915 -103.902 1619.58
305.213 -103.902 1619.58
421.904 -163.846 2553.95
423.952 -163.846 2553.95
426 -163.846 2553.95
428.048 -163.846 2553.95
430.096 -163.846 2553.95
432.144 -163.846 2553.95
434.192 -163.846 2553.95
436.24 -163.846 2553.95
438.288 -163.846 2553.95
214.323 -52.9193 824.879
214.984 -52.9193 824.879
447.714 -165.437 2578.75
449.782 -165.437 2578.75
451.85 -165.437 2578.75
453.917 -165.437 2578.75
293.984 -88.75 1383.39
295.094 -88.75 1383.39
297.196 -89.2147 1390.63
308.909 -94.1436 1467.46
305.684 -92.1081 1435.74
306.835 -92.1081 1435.74
306.903 -91.6129 1428.02
309.138 -92.1081 1435.74
495.17 -175.67 2738.26
497.366 -175.67 2738.26
499.562 -175.67 2738.26
445.792 -150.796 2350.54
627.486 -230.27 3589.34
377.591 -119.161 1857.42
379.08 -119.161 1857.42
380.57 -119.161 1857.42
384 -120 1870.5
379.728 -117.517 1831.8
381.197 -117.517 1831.8
477.278 -157.778 2459.36
497.345 -165.437 2578.75
660.884 -233.425 3638.51
501.481 -165.437 2578.75
555.907 -187.253 2918.8
473.545 -152.143 2371.53
616.648 -210.37 3279.15
383.4 -113.6 1770.74
268.314 -66.0465 1029.5
275.018 -68.4337 1066.71
275.873 -68.4337 1066.71
339.396 -93.6264 1459.4
417.449 -124.38 1938.77
341.736 -93.6264 1459.4
336.586 -91.123 1420.38
344.077 -93.6264 1459.4
559.125 -177.5 2766.78
721.5 -240 3741
573.287 -181.277 2825.65
570.616 -179.368 2795.91
373.392 -102.651 1600.07
374.675 -102.651 1600.07
426 -121.714 1897.22
427.521 -121.714 1897.22
372.124 -100.235 1562.42
353.071 -92.6087 1443.54
581.312 -177.5 2766.78
645.265 -200.471 3124.84
601.21 -183.226 2856.03
637.776 -195.862 3053
634.159 -193.636 3018.31
636.58 -193.636 3018.31
-82.1811 -67.9252 1045.71
-100.943 -75.013 1154.83
-273.492 -138.024 2124.89
-117.604 -81.7678 1258.82
-116.595 -81.7678 1258.82
-116.643 -82.1571 1264.81
-68.2079 -64.618 994.798
-67.4101 -64.618 994.798
-76.9167 -68.4643 1054.01
-134.38 -90.3298 1390.63
-174.451 -105.847 1629.52
-67.4771 -65.8511 1013.78
-281.269 -147.462 2270.18
-64.5455 -65.3523 1006.1
-63.7386 -65.3523 1006.1
-62.9318 -65.3523 1006.1
-62.7662 -65.6008 1009.93
-201.167 -119.812 1844.52
-58.0187 -64.3769 991.086
-265.347 -146.212 2250.94
-263.542 -146.212 2250.94
-410.786 -205.393 3162.04
-206.826 -125.022 1924.72
-145.114 -100.895 1553.28
-123.677 -92.7581 1428.02
-122.532 -92.7581 1428.02
-117.77 -91.2857 1405.35
-116.643 -91.2857 1405.35
-249.102 -146.212 2250.94
-115.564 -91.7713 1412.82
-120.467 -94.2787 1451.43
-259.181 -152.681 2350.54
-257.296 -152.681 2350.54
-166.14 -115.02 1770.74
-118.268 -95.3204 1467.46
-117.091 -95.3204 1467.46
-117.15 -95.85 1475.62
-164.068 -116.574 1794.67
-162.628 -116.574 1794.67
-163.01 -117.367 1806.88
-161.561 -117.367 1806.88
-161.938 -118.171 1819.25
-158.663 -117.367 1806.88
-245.918 -156.845 2414.65
-240.824 -155.432 2392.89
-238.905 -155.432 2392.89
-236.986 -155.432 2392.89
-235.068 -155.432 2392.89
-233.149 -155.432 2392.89
-231.23 -155.432 2392.89
-229.311 -155.432 2392.89
-227.392 -155.432 2392.89
-225.473 -155.432 2392.89
-220.607 -154.045 2371.53
-218.705 -154.045 2371.53
-216.804 -154.045 2371.53
-217.797 -155.432 2392.89
-215.878 -155.432 2392.89
-213.959 -155.432 2392.89
-212.041 -155.432 2392.89
-207.295 -154.045 2371.53
-208.203 -155.432 2392.89
-206.284 -155.432 2392.89
-204.365 -155.432 2392.89
-202.446 -155.432 2392.89
-200.527 -155.432 2392.89
-198.608 -155.432 2392.89
-196.689 -155.432 2392.89
-194.77 -155.432 2392.89
-192.851 -155.432 2392.89
-190.932 -155.432 2392.89
-189.014 -155.432 2392.89
-187.095 -155.432 2392.89
-185.176 -155.432 2392.89
-183.257 -155.432 2392.89
-181.338 -155.432 2392.89
-187.361 -159.75 2459.36
-177.5 -155.432 2392.89
-173.062 -154.045 2371.53
-171.161 -154.045 2371.53
-169.259 -154.045 2371.53
-167.357 -154.045 2371.53
-158.361 -150.026 2309.66
-165.986 -155.432 2392.89
-164.068 -155.432 2392.89
-162.149 -155.432 2392.89
-160.23 -155.432 2392.89
-155.946 -154.045 2371.53
-154.045 -154.045 2371.53
-152.143 -154.045 2371.53
-143.543 -150.026 2309.66
-143.868 -151.342 2329.92
-142 -151.342 2329.92
-122.085 -140.268 2159.44
-118.524 -139.137 2142.02
-115.02 -138.024 2124.89
-113.316 -138.024 2124.89
-128.534 -148.733 2289.75
-126.698 -148.733 2289.75
-124.862 -148.733 2289.75
-123.026 -148.733 2289.75
-121.19 -148.733 2289.75
-63.6234 -112.032 1724.75
-115.603 -147.462 2270.18
-113.782 -147.462 2270.18
-111.962 -147.462 2270.18
-110.141 -147.462 2270.18
-106.5 -146.212 2250.94
-58.5397 -114.258 1759.01
-102.89 -146.212 2250.94
-101.085 -146.212 2250.94
-99.2797 -146.212 2250.94
-97.4746 -146.212 2250.94
-95.6695 -146.212 2250.94
-93.8644 -146.212 2250.94
-92.0593 -146.212 2250.94
-90.2542 -146.212 2250.94
-88.4492 -146.212 2250.94
-86.6441 -146.212 2250.94
-84.839 -146.212 2250.94
-83.0339 -146.212 2250.94
-81.2288 -146.212 2250.94
-79.4237 -146.212 2250.94
-77.6186 -146.212 2250.94
-75.8136 -146.212 2250.94
-74.0085 -146.212 2250.94
-72.2034 -146.212 2250.94
-70.3983 -146.212 2250.94
-68.5932 -146.212 2250.94
-66.7881 -146.212 2250.94
-64.9831 -146.212 2250.94
-63.178 -146.212 2250.94
-61.3729 -146.212 2250.94
-59.5678 -146.212 2250.94
-57.7627 -146.212 2250.94
-55.9576 -146.212 2250.94
-55.5256 -147.462 2270.18
-53.7051 -147.462 2270.18
-51.8846 -147.462 2270.18
-50.0641 -147.462 2270.18
-46.9322 -146.212 2250.94
-46.4231 -147.462 2270.18
-44.6026 -147.462 2270.18
-44.069 -148.733 2289.75
-42.2328 -148.733 2289.75
-40.3966 -148.733 2289.75
-38.5603 -148.733 2289.75
-137.824 -253.721 3906.04
35.5 -74.6883 1149.83
-38.0357 -154.045 2371.53
-36.1339 -154.045 2371.53
-34.2321 -154.045 2371.53
-32.3304 -154.045 2371.53
-40.9615 -165.894 2553.95
54.5309 -59.2887 912.753
-25.4469 -152.681 2350.54
-23.5619 -152.681 2350.54
-21.677 -152.681 2350.54
-19.792 -152.681 2350.54
-17.9071 -152.681 2350.54
-16.0221 -152.681 2350.54
-14.1372 -152.681 2350.54
-12.2522 -152.681 2350.54
-10.3673 -152.681 2350.54
-10.5541 -155.432 2392.89
-7.60714 -154.045 2371.53
-5.70536 -154.045 2371.53
-3.80357 -154.045 2371.53
-2.87838 -155.432 2392.89
-0.959459 -155.432 2392.89
56.221 -74.0472 1139.96
56.4913 -75.013 1154.83
57.6299 -74.6883 1149.83
58.7586 -74.3664 1144.88
59.8777 -74.0472 1139.96
61.1809 -73.417 1130.26
62.2754 -73.1059 1125.47
62.9936 -73.417 1130.26
64.2595 -72.7975 1120.72
19.792 -152.681 2350.54
21.677 -152.681 2350.54
23.5619 -152.681 2350.54
25.4469 -152.681 2350.54
27.3319 -152.681 2350.54
14.5737 -181.611 2795.91
15.8617 -183.543 2825.65
19.0579 -181.611 2795.91
22.1875 -179.719 2766.78
38.5603 -148.733 2289.75
27.4485 -177.866 2738.26
26.3387 -185.516 2856.03
28.629 -185.516 2856.03
31.7234 -183.543 2825.65
34.7526 -181.611 2795.91
60.3252 -120.65 1857.42
61.8147 -120.65 1857.42
63.3042 -120.65 1857.42
64.5 -121.5 1870.5
65.7128 -122.362 1883.77
55.2222 -159.75 2459.36
57.6468 -158.284 2436.8
59.1667 -159.75 2459.36
61.1389 -159.75 2459.36
63.1111 -159.75 2459.36
65.0833 -159.75 2459.36
67.0556 -159.75 2459.36
69.0278 -159.75 2459.36
71.3257 -158.284 2436.8
73.2798 -158.284 2436.8
74.3491 -162.764 2505.76
76.3585 -162.764 2505.76
78.3679 -162.764 2505.76
80.3774 -162.764 2505.76
82.3868 -162.764 2505.76
74.4041 -236.342 3638.51
77.7162 -233.149 3589.34
82.8333 -213 3279.15
84.6538 -221.192 3405.27
87.3846 -221.192 3405.27
90.1154 -221.192 3405.27
92.8462 -221.192 3405.27
95.7152 -218.392 3362.16
100.795 -154.045 2371.53
101.241 -213 3279.15
103.934 -207.867 3200.13
106.5 -205.393 3162.04
109.13 -213 3279.15
110.237 -151.342 2329.92
112.105 -151.342 2329.92
113.974 -151.342 2329.92
115.925 -152.681 2350.54
117.711 -151.342 2329.92
119.465 -150.026 2309.66
114.653 -82.5502 1270.87
123.616 -154.045 2371.53
125.518 -154.045 2371.53
127.42 -154.045 2371.53
116.848 -69.8502 1075.35
130.789 -151.342 2329.92
132.43 -150.026 2309.66
134.043 -148.733 2289.75
135.879 -148.733 2289.75
137.716 -148.733 2289.75
139.552 -148.733 2289.75
141.388 -148.733 2289.75
143.224 -148.733 2289.75
145.06 -148.733 2289.75
146.897 -148.733 2289.75
148.733 -148.733 2289.75
150.569 -148.733 2289.75
128.78 -72.1883 1111.34
129.575 -71.8875 1106.71
132.523 -78.0679 1201.86
131.145 -71.2934 1097.57
131.92 -71 1093.05
160.653 -146.212 2250.94
162.458 -146.212 2250.94
164.263 -146.212 2250.94
166.068 -146.212 2250.94
167.873 -146.212 2250.94
169.147 -144.983 2232.03
170.937 -144.983 2232.03
158.349 -113.507 1747.44
174.517 -144.983 2232.03
176.307 -144.983 2232.03
178.097 -144.983 2232.03
143.04 -72.1883 1111.34
184.291 -150.026 2309.66
140.173 -63.4301 976.511
141.866 -65.1057 1002.31
198.663 -165.894 2553.95
238.905 -233.149 3589.34
202.76 -165.894 2553.95
204.808 -165.894 2553.95
205.9 -164.314 2529.63
208.904 -165.894 2553.95
210.952 -165.894 2553.95
211.986 -164.314 2529.63
214.014 -164.314 2529.63
216.043 -164.314 2529.63
218.071 -164.314 2529.63
220.1 -164.314 2529.63
222.129 -164.314 2529.63
168.27 -86.265 1328.06
226.186 -164.314 2529.63
228.214 -164.314 2529.63
230.243 -164.314 2529.63
232.271 -164.314 2529.63
234.3 -164.314 2529.63
236.329 -164.314 2529.63
238.357 -164.314 2529.63
240.386 -164.314 2529.63
242.414 -164.314 2529.63
244.443 -164.314 2529.63
246.471 -164.314 2529.63
248.5 -164.314 2529.63
249.17 -162.764 2505.76
252.557 -164.314 2529.63
254.586 -164.314 2529.63
256.614 -164.314 2529.63
258.643 -164.314 2529.63
259.217 -162.764 2505.76
261.226 -162.764 2505.76
263.236 -162.764 2505.76
265.245 -162.764 2505.76
267.255 -162.764 2505.76
269.264 -162.764 2505.76
271.274 -162.764 2505.76
273.283 -162.764 2505.76
276.9 -164.314 2529.63
277.302 -162.764 2505.76
279.311 -162.764 2505.76
281.321 -162.764 2505.76
283.33 -162.764 2505.76
287.043 -164.314 2529.63
289.071 -164.314 2529.63
289.358 -162.764 2505.76
291.368 -162.764 2505.76
295.157 -164.314 2529.63
297.186 -164.314 2529.63
297.396 -162.764 2505.76
301.243 -164.314 2529.63
301.415 -162.764 2505.76
303.425 -162.764 2505.76
305.434 -162.764 2505.76
307.443 -162.764 2505.76
309.453 -162.764 2505.76
311.462 -162.764 2505.76
313.472 -162.764 2505.76
315.481 -162.764 2505.76
317.491 -162.764 2505.76
319.5 -162.764 2505.76
323.557 -164.314 2529.63
325.586 -164.314 2529.63
325.528 -162.764 2505.76
327.538 -162.764 2505.76
329.547 -162.764 2505.76
331.557 -162.764 2505.76
333.566 -162.764 2505.76
335.575 -162.764 2505.76
337.585 -162.764 2505.76
339.594 -162.764 2505.76
341.604 -162.764 2505.76
343.613 -162.764 2505.76
345.623 -162.764 2505.76
347.632 -162.764 2505.76
349.642 -162.764 2505.76
351.651 -162.764 2505.76
262.446 -102.696 1581.02
263.714 -102.696 1581.02
360.071 -164.314 2529.63
359.689 -162.764 2505.76
361.698 -162.764 2505.76
363.708 -162.764 2505.76
365.717 -162.764 2505.76
367.726 -162.764 2505.76
372.243 -164.314 2529.63
374.271 -164.314 2529.63
376.3 -164.314 2529.63
378.329 -164.314 2529.63
380.357 -164.314 2529.63
382.386 -164.314 2529.63
384.414 -164.314 2529.63
386.443 -164.314 2529.63
388.471 -164.314 2529.63
390.5 -164.314 2529.63
392.529 -164.314 2529.63
394.557 -164.314 2529.63
396.586 -164.314 2529.63
401.423 -165.894 2553.95
403.471 -165.894 2553.95
405.519 -165.894 2553.95
407.567 -165.894 2553.95
409.615 -165.894 2553.95
411.663 -165.894 2553.95
413.712 -165.894 2553.95
307.519 -107.831 1660.07
538.18 -230.04 3541.48
306.433 -105.847 1629.52
421.904 -165.894 2553.95
423.952 -165.894 2553.95
426 -165.894 2553.95
428.048 -165.894 2553.95
427.014 -164.314 2529.63
432.144 -165.894 2553.95
434.192 -165.894 2553.95
436.24 -165.894 2553.95
512.453 -202.976 3124.84
411.053 -151.342 2329.92
302.747 -96.927 1492.2
447.714 -167.505 2578.75
427.936 -156.845 2414.65
451.85 -167.505 2578.75
299.927 -93.2595 1435.74
399.159 -140.268 2159.44
487.658 -181.611 2795.91
307.732 -95.3204 1467.46
308.909 -95.3204 1467.46
310.086 -95.3204 1467.46
310.137 -94.7967 1459.4
307.986 -93.2595 1435.74
309.138 -93.2595 1435.74
495.17 -177.866 2738.26
497.366 -177.866 2738.26
334.805 -103.311 1590.49
445.792 -152.681 2350.54
627.486 -233.149 3589.34
364.94 -115.02 1770.74
640.459 -236.342 3638.51
674.5 -250.043 3849.43
455.217 -152.681 2350.54
457.102 -152.681 2350.54
458.987 -152.681 2350.54
267.319 -69.2892 1066.71
497.345 -167.505 2578.75
499.413 -167.505 2578.75
501.481 -167.505 2578.75
485.167 -159.75 2459.36
326.334 -92.262 1420.38
565.633 -191.7 2951.23
487.555 -158.284 2436.8
382.977 -114.258 1759.01
326.191 -90.3298 1390.63
275.873 -69.2892 1066.71
276.729 -69.2892 1066.71
340.566 -94.7967 1459.4
379.194 -109.892 1691.79
501.234 -158.284 2436.8
556.906 -179.719 2766.78
554.459 -177.866 2738.26
730.286 -246.471 3794.44
568.374 -181.611 2795.91
570.616 -181.611 2795.91
572.858 -181.611 2795.91
255.886 -57.896 891.312
256.099 -57.7023 888.331
257.315 -57.896 891.312
576.875 -179.719 2766.78
353.071 -93.7663 1443.54
581.312 -179.719 2766.78
645.265 -202.976 3124.84
647.771 -202.976 3124.84
637.776 -198.31 3053
634.159 -196.057 3018.31
636.58 -196.057 3018.31
-279.992 -140.855 2142.02
-92.3 -72.775 1106.71
-276.556 -140.855 2142.02
-94.717 -74.3234 1130.26
-114.5 -82 1247
-113.5 -82 1247
-72.2241 -66.9195 1017.67
-71.408 -66.9195 1017.67
-67.9189 -65.9094 1002.31
-69.7759 -66.9195 1017.67
-75.9502 -69.5857 1058.21
-67.4771 -66.6641 1013.78
-66.6641 -66.6641 1013.78
-64.5455 -66.1591 1006.1
-63.7386 -66.1591 1006.1
-62.9318 -66.1591 1006.1
-62.125 -66.1591 1006.1
-61.9563 -66.4106 1009.93
-199.688 -121.292 1844.52
-265.347 -148.017 2250.94
-263.542 -148.017 2250.94
-261.737 -148.017 2250.94
-502.5 -246 3741
-388.052 -200.759 3053
-44.25 -61.5 935.25
-260.741 -150.569 2289.75
-258.905 -150.569 2289.75
-104.37 -87.33 1328.06
-105.424 -88.2121 1341.47
-117.952 -93.9032 1428.02
-94.1522 -84.3768 1283.14
-310.894 -176.424 2682.94
-198.011 -129.378 1967.49
-194.206 -128.426 1953.02
-117.033 -95.967 1459.4
-117.091 -96.4972 1467.46
-161.88 -116.44 1770.74
-160.46 -116.44 1770.74
-159.04 -116.44 1770.74
-159.393 -117.221 1782.62
-105.355 -93.9032 1428.02
-160.112 -118.816 1806.88
-158.663 -118.816 1806.88
-245.918 -158.782 2414.65
-240.824 -157.351 2392.89
-238.905 -157.351 2392.89
-236.986 -157.351 2392.89
-235.068 -157.351 2392.89
-233.149 -157.351 2392.89
-231.23 -157.351 2392.89
-229.311 -157.351 2392.89
-227.392 -157.351 2392.89
-225.473 -157.351 2392.89
-223.554 -157.351 2392.89
-221.635 -157.351 2392.89
-219.716 -157.351 2392.89
-217.797 -157.351 2392.89
-215.878 -157.351 2392.89
-213.959 -157.351 2392.89
-212.041 -157.351 2392.89
-207.295 -155.946 2371.53
-205.393 -155.946 2371.53
-206.284 -157.351 2392.89
-204.365 -157.351 2392.89
-202.446 -157.351 2392.89
-200.527 -157.351 2392.89
-198.608 -157.351 2392.89
-196.689 -157.351 2392.89
-194.77 -157.351 2392.89
-192.851 -157.351 2392.89
-190.932 -157.351 2392.89
-189.014 -157.351 2392.89
-189.764 -158.782 2414.65
-187.827 -158.782 2414.65
-185.891 -158.782 2414.65
-181.338 -157.351 2392.89
-187.361 -161.722 2459.36
-174.964 -155.946 2371.53
-173.062 -155.946 2371.53
-171.161 -155.946 2371.53
-169.259 -155.946 2371.53
-167.357 -155.946 2371.53
-158.361 -151.878 2309.66
-165.986 -157.351 2392.89
-164.068 -157.351 2392.89
-162.149 -157.351 2392.89
-160.23 -157.351 2392.89
-155.946 -155.946 2371.53
-154.045 -155.946 2371.53
-147.605 -153.211 2329.92
-143.543 -151.878 2309.66
-141.691 -151.878 2309.66
-142 -153.211 2329.92
-137.987 -151.878 2309.66
-118.524 -140.855 2142.02
-109.828 -136.453 2075.09
-130.371 -150.569 2289.75
-128.534 -150.569 2289.75
-126.698 -150.569 2289.75
-124.862 -150.569 2289.75
-123.026 -150.569 2289.75
-121.19 -150.569 2289.75
-68.16 -116.44 1770.74
-115.603 -149.282 2270.18
-113.782 -149.282 2270.18
-111.962 -149.282 2270.18
-110.141 -149.282 2270.18
-106.5 -148.017 2250.94
-104.695 -148.017 2250.94
-102.89 -148.017 2250.94
-101.085 -148.017 2250.94
-99.2797 -148.017 2250.94
-97.4746 -148.017 2250.94
-95.6695 -148.017 2250.94
-93.8644 -148.017 2250.94
-92.0593 -148.017 2250.94
-90.2542 -148.017 2250.94
-88.4492 -148.017 2250.94
-86.6441 -148.017 2250.94
-84.839 -148.017 2250.94
-83.0339 -148.017 2250.94
-81.2288 -148.017 2250.94
-79.4237 -148.017 2250.94
-77.6186 -148.017 2250.94
-75.8136 -148.017 2250.94
-74.0085 -148.017 2250.94
-72.2034 -148.017 2250.94
-70.3983 -148.017 2250.94
-68.5932 -148.017 2250.94
-66.7881 -148.017 2250.94
-64.9831 -148.017 2250.94
-63.178 -148.017 2250.94
-61.3729 -148.017 2250.94
-59.5678 -148.017 2250.94
-57.7627 -148.017 2250.94
-55.9576 -148.017 2250.94
-54.1525 -148.017 2250.94
-52.3475 -148.017 2250.94
-47.925 -145.55 2213.43
-50.0641 -149.282 2270.18
-48.2436 -149.282 2270.18
-46.4231 -149.282 2270.18
-44.6026 -149.282 2270.18
-20.0652 -126.565 1924.72
-42.2328 -150.569 2289.75
-40.3966 -150.569 2289.75
-38.5603 -150.569 2289.75
34.2652 -75.9391 1154.83
-39.9375 -155.946 2371.53
-38.0357 -155.946 2371.53
-36.1339 -155.946 2371.53
-34.2321 -155.946 2371.53
-32.3304 -155.946 2371.53
-29.2168 -154.566 2350.54
-27.3319 -154.566 2350.54
-25.4469 -154.566 2350.54
-23.5619 -154.566 2350.54
-21.677 -154.566 2350.54
-19.792 -154.566 2350.54
-17.9071 -154.566 2350.54
-16.0221 -154.566 2350.54
-14.1372 -154.566 2350.54
-12.2522 -154.566 2350.54
-10.3673 -154.566 2350.54
-9.50893 -155.946 2371.53
-7.60714 -155.946 2371.53
-5.70536 -155.946 2371.53
-2.82743 -154.566 2350.54
-2.87838 -157.351 2392.89
-4.97664 -163.234 2482.35
56.221 -74.9614 1139.96
56.4913 -75.9391 1154.83
57.6299 -75.6104 1149.83
58.7586 -75.2845 1144.88
10.3673 -154.566 2350.54
61.1809 -74.3234 1130.26
62.2754 -74.0085 1125.47
62.9936 -74.3234 1130.26
63.7179 -74.641 1135.09
19.792 -154.566 2350.54
21.677 -154.566 2350.54
23.5619 -154.566 2350.54
25.4469 -154.566 2350.54
27.3319 -154.566 2350.54
71.4277 -70.1446 1066.71
15.8617 -185.809 2825.65
32.9867 -154.566 2350.54
34.8717 -154.566 2350.54
36.7566 -154.566 2350.54
38.6416 -154.566 2350.54
27.1915 -185.809 2825.65
29.4574 -185.809 2825.65
31.7234 -185.809 2825.65
34.7526 -183.853 2795.91
60.3252 -122.14 1857.42
62.125 -121.292 1844.52
63.3042 -122.14 1857.42
64.7937 -122.14 1857.42
65.1259 -125.655 1910.87
66.6583 -125.655 1910.87
57.6468 -160.239 2436.8
59.6009 -160.239 2436.8
61.555 -160.239 2436.8
63.1111 -161.722 2459.36
65.8364 -158.782 2414.65
67.0556 -161.722 2459.36
69.0278 -161.722 2459.36
71 -161.722 2459.36
72.9722 -161.722 2459.36
74.3491 -164.774 2505.76
76.3585 -164.774 2505.76
78.3679 -164.774 2505.76
80.3774 -164.774 2505.76
82.3868 -164.774 2505.76
84.1857 -166.343 2529.63
78.1 -232.88 3541.48
80.94 -232.88 3541.48
83.78 -232.88 3541.48
86.8816 -229.816 3494.88
89.6842 -229.816 3494.88
93.019 -221.089 3362.16
95.7152 -221.089 3362.16
98.5125 -218.325 3320.14
101.175 -218.325 3320.14
103.902 -213 3239.16
106.5 -151.878 2309.66
108.352 -151.878 2309.66
110.204 -151.878 2309.66
112.057 -151.878 2309.66
114.04 -154.566 2350.54
115.925 -154.566 2350.54
117.711 -153.211 2329.92
119.465 -151.878 2309.66
114.653 -83.5694 1270.87
123.616 -155.946 2371.53
125.518 -155.946 2371.53
127.235 -154.566 2350.54
116.848 -70.7126 1075.35
130.578 -151.878 2309.66
132.207 -150.569 2289.75
134.043 -150.569 2289.75
